616609.3791 4238296.1275 0.1738
616679.9006 4238290.0369 0.1736
616675.1809 4238410.7819 0.1727
616625.7763 4238431.0024 0.1730
616688.0441 4235976.2465 0.1701
616641.0054 4235986.9566 0.1701
616725.4178 4225668.3214 0.1363
616654.7506 4225724.2905 0.1363
616683.2398 4237805.5050 0.1748
616610.7993 4237744.8559 0.1749
616679.0963 4238907.1224 0.1624
616697.9387 4234876.2077 0.1847
616647.7745 4234887.7355 0.1701
616687.6762 4237858.5949 0.1747
616620.6359 4237827.6723 0.1748
616627.2673 4238250.2985 0.1739
616687.9789 4238243.5869 0.1738
616686.7907 4237054.7788 0.1754
616660.8455 4237083.4708 0.1754
616679.3533 4243901.3472 0.3759
616679.4686 4243929.3470 0.3759
616627.1816 4237893.8344 0.1747
616692.6697 4237915.7777 0.1746
616695.0000 4232568.0000 0.1754
616648.0000 4232566.0000 0.1754
616718.0602 4230033.7062 0.1423
616728.4359 4230044.8504 0.1423
616679.1448 4232919.9420 0.1754
616682.3873 4232956.1427 0.1754
616660.2071 4237423.5432 0.1752
616700.9333 4237438.1284 0.1752
616706.0136 4236059.0257 0.1701
616657.0168 4236068.0097 0.1701
616633.3374 4236391.3429 0.1754
616701.8819 4236407.5407 0.1958
616646.3716 4238212.1091 0.1740
616687.3756 4238196.9094 0.1739
616696.9058 4237093.7854 0.1754
616669.9912 4237112.7372 0.1754
616640.0015 4237944.9753 0.1746
616698.2279 4237973.5271 0.1744
616742.1663 4226751.0972 0.1363
616704.3933 4226781.7874 0.1363
616699.1340 4237137.3885 0.1754
616717.1758 4234964.0580 0.1907
616667.2120 4234974.9303 0.1701
616678.4244 4238596.0948 0.1696
616702.6496 4238601.7370 0.1692
616694.5679 4238644.7147 0.1671
616670.5640 4238641.4985 0.1680
616699.7947 4230458.7047 0.1522
616728.2368 4230481.7316 0.1523
616649.9332 4236464.3071 0.1754
616718.1500 4236491.1105 0.1902
616724.2452 4236145.9239 0.1701
616675.0868 4236157.1225 0.1701
616703.9782 4243901.2452 0.3763
616704.0949 4243929.2450 0.3763
616713.3162 4238373.0009 0.1727
616700.2956 4238417.9243 0.1725
616687.7915 4238365.7751 0.1728
616688.6394 4238554.5026 0.1707
616712.9977 4238560.9359 0.1703
616691.0026 4238679.0716 0.1663
616711.5241 4238650.5769 0.1656
616708.5681 4232933.4803 0.1754
616711.8611 4232966.6011 0.1754
616736.9005 4235051.0043 0.1922
616686.8932 4235062.4323 0.1701
616722.4530 4237635.3486 0.1749
616695.7273 4237680.9167 0.1749
616695.2541 4237619.3914 0.1749
616656.5007 4236544.7871 0.1754
616739.6312 4236568.6045 0.1754
616722.0000 4232597.0000 0.1754
616697.8470 4232608.9023 0.1754
616735.5927 4238179.7920 0.1738
616693.0370 4238152.1722 0.1740
616720.3898 4237689.4067 0.1748
616699.9868 4237737.7092 0.1748
616692.7466 4238015.7422 0.1744
616727.6095 4237992.0547 0.1744
616700.1179 4238512.1554 0.1715
616724.6074 4238519.0555 0.1713
616726.2977 4238327.1687 0.1729
616700.4524 4238320.0796 0.1730
616698.0937 4237560.2325 0.1750
616728.5037 4237582.3386 0.1750
616742.9637 4236231.9801 0.1701
616694.0477 4236242.2349 0.1701
616723.0098 4237743.2684 0.1748
616705.7313 4237795.9234 0.1747
616731.1777 4237448.8132 0.1751
616700.4601 4237472.6772 0.1751
616735.8896 4237532.8562 0.1750
616702.3531 4237510.0657 0.1751
616729.5189 4233120.1686 0.1754
616729.3647 4233154.5526 0.1754
616696.0927 4233156.8666 0.1754
616696.4461 4233117.4687 0.1754
616739.0153 4237490.5665 0.1751
616732.9867 4233194.3160 0.1754
616702.7463 4233199.7790 0.1754
616705.8407 4233085.5465 0.1754
616732.7831 4233094.7712 0.1754
616728.6034 4243901.1422 0.3767
616728.7210 4243929.1419 0.3766
616730.9340 4232624.0489 0.1754
616812.6048 4225769.6298 0.1363
616705.2252 4225827.1831 0.1363
616712.4046 4238469.0131 0.1720
616737.0928 4238476.2855 0.1719
616731.0912 4233560.9252 0.1754
616714.8554 4233570.7038 0.1754
616705.5531 4233526.0327 0.1754
616724.4450 4233528.4571 0.1754
616728.1036 4237794.6975 0.1747
616734.3288 4237845.8264 0.1746
616708.1501 4237848.6467 0.1746
616712.8970 4238273.7951 0.1733
616738.9177 4238280.6265 0.1733
616733.7474 4238647.2672 0.1648
616714.0189 4238630.6189 0.1651
616719.6369 4233488.6724 0.1754
616734.6451 4233498.0342 0.1754
616757.0457 4235138.1118 0.1911
616707.1200 4235149.9543 0.1701
616741.4068 4233227.3564 0.1754
616711.1845 4233236.6694 0.1754
616718.1768 4238607.3346 0.1650
616738.5505 4238623.3544 0.1648
616720.0318 4233060.9682 0.1754
616739.9089 4233071.5656 0.1754
616741.7300 4237895.0909 0.1745
616716.0007 4237900.0866 0.1745
616685.3984 4236614.6709 0.1754
616750.8302 4236638.1712 0.1964
616727.4324 4243821.8135 0.4083
616768.8823 4243882.7447 0.4075
616761.5869 4236320.0282 0.1701
616711.9081 4236330.0753 0.1701
616734.6280 4232945.1068 0.1754
616736.7591 4232970.1333 0.1754
616744.6740 4238598.0323 0.1648
616721.0083 4238580.3982 0.1650
616725.1771 4238425.2790 0.1724
616750.1398 4238432.5538 0.1723
616724.8357 4238226.9752 0.1736
616751.1466 4238233.5740 0.1736
616751.6163 4233256.5628 0.1754
616724.7176 4233269.0015 0.1754
616746.8846 4237943.4345 0.1744
616724.8455 4237945.6810 0.1744
616726.7413 4238553.1666 0.1653
616750.4041 4238570.2784 0.1650
616730.2047 4233043.8803 0.1754
616747.4798 4233051.1674 0.1754
616742.1698 4233600.0519 0.1754
616752.8044 4233586.4791 0.1754
616737.5580 4233462.7163 0.1754
616751.7993 4233473.6547 0.1754
616750.7409 4237991.1968 0.1743
616802.6199 4226852.3963 0.1363
616767.2584 4226870.3464 0.1363
616755.2840 4238543.6399 0.1653
616738.1348 4238523.3447 0.1655
616744.8837 4232685.1397 0.1754
616711.9658 4232654.7866 0.1754
616774.0420 4232662.8846 0.1754
616753.2288 4243901.0386 0.3770
616753.3468 4243929.0383 0.3770
616705.7815 4236677.3269 0.1754
616767.1702 4236700.8081 0.1974
616777.0398 4235226.0175 0.1925
616727.0479 4235237.0712 0.1701
616737.9969 4233025.7902 0.1754
616753.8372 4233030.8412 0.1754
616762.6581 4238185.5578 0.1738
616763.9668 4233283.5072 0.1754
616741.9635 4233297.0420 0.1754
616793.8869 4229956.8623 0.1404
616803.1515 4229964.6858 0.1404
616781.2689 4236408.9498 0.1701
616732.0567 4236420.9653 0.1701
616741.0613 4233010.8571 0.1754
616757.1065 4233011.8347 0.1754
616739.9620 4232992.8078 0.1754
616756.4435 4232968.0073 0.1754
616757.7517 4232991.1521 0.1754
616754.3497 4233440.7710 0.1754
616768.4900 4233451.2986 0.1754
616769.4160 4230378.7292 0.1483
616793.4188 4230399.3644 0.1483
616740.3739 4233531.8050 0.1754
616751.3203 4233508.1425 0.1754
616767.1762 4233515.6928 0.1754
616759.9810 4233537.9433 0.1754
616750.8144 4238489.3960 0.1658
616776.6905 4238518.1506 0.1657
616721.4818 4236733.9772 0.1754
616778.0636 4236752.5516 0.1841
616778.7606 4233605.9245 0.1754
616768.0134 4233620.2741 0.1754
616777.9295 4233307.5743 0.1754
616758.3845 4233320.5273 0.1754
616744.5018 4233551.5325 0.1754
616777.7265 4233558.4726 0.1754
616764.9581 4233571.3778 0.1754
616797.9666 4235314.0445 0.1726
616746.9998 4235325.9622 0.1701
616777.8543 4243900.9346 0.3772
616777.9726 4243928.9344 0.3772
616782.8512 4238491.1759 0.1659
616763.9139 4238454.3233 0.1660
616766.2153 4233483.9481 0.1754
616780.3799 4233495.3449 0.1754
616801.8282 4236498.3966 0.1701
616752.8756 4236508.9244 0.1701
616733.1023 4236788.0735 0.1754
616791.6803 4236815.1886 0.1968
616769.4217 4233420.1203 0.1754
616783.6888 4233430.3523 0.1754
616764.1199 4232717.0314 0.1754
616795.8634 4232704.9484 0.1754
616793.0865 4233329.7474 0.1754
616773.5605 4233343.2504 0.1754
616744.7626 4236839.8876 0.1754
616802.9039 4236880.3418 0.1931
616851.3261 4225891.1602 0.1363
616773.3275 4225926.0124 0.1363
616782.6508 4233462.5090 0.1754
616797.3718 4233473.4755 0.1754
616818.0362 4235402.0678 0.1811
616766.9772 4235413.7145 0.1701
616800.1397 4233577.1030 0.1754
616789.6469 4233592.0306 0.1754
616797.5715 4233407.5699 0.1754
616782.1494 4233399.5431 0.1754
616775.5493 4232750.8015 0.1754
616802.9476 4232747.1288 0.1754
616793.4370 4238402.1001 0.1725
616816.0613 4238443.5473 0.1723
616805.5077 4233625.1300 0.1754
616795.1850 4233639.9193 0.1754
616823.0150 4236586.9929 0.1701
616774.0607 4236599.8586 0.1701
616798.8367 4238298.2680 0.1731
616764.7362 4238287.3368 0.1732
616777.1161 4238240.3157 0.1735
616812.0092 4238247.3597 0.1735
616817.9668 4238464.3023 0.1661
616802.4799 4243900.8307 0.3775
616802.5982 4243928.8304 0.3775
616782.0738 4232784.1375 0.1754
616804.0514 4232782.1045 0.1754
616785.3097 4237434.7066 0.1751
616772.0415 4237385.2512 0.1752
616798.8602 4237377.2587 0.1972
616813.1674 4237427.7978 0.1751
616849.3295 4226926.4862 0.1363
616804.8151 4226952.0658 0.1363
616807.5655 4233526.6787 0.1754
616774.3474 4233536.1088 0.1754
616798.6239 4233496.9880 0.1754
616798.9509 4233560.1909 0.1754
616814.3760 4233350.8809 0.1754
616796.2909 4233371.8428 0.1754
616818.9138 4236943.1858 0.1818
616761.4751 4236914.2705 0.1754
616828.9754 4236985.3422 0.1778
616736.4037 4236971.2703 0.1754
616787.1656 4232816.4567 0.1754
616806.0276 4232813.9770 0.1754
616812.7131 4238354.5288 0.1727
616780.4840 4238343.9372 0.1728
616809.8482 4233153.2194 0.1754
616809.1639 4233185.1608 0.1754
616786.5104 4233185.6403 0.1754
616784.5815 4233153.7121 0.1754
616810.8521 4233122.9059 0.1754
616784.8777 4233121.3690 0.1754
616814.2881 4233385.1039 0.1754
616798.5744 4233440.0426 0.1754
616813.8806 4233450.5280 0.1754
616828.6953 4243883.7972 0.4065
616797.0868 4243823.7767 0.4076
616786.0846 4233103.3347 0.1754
616811.1556 4233103.9073 0.1754
616791.0453 4232848.0991 0.1754
616809.9496 4232846.0237 0.1754
616788.1578 4233082.2684 0.1754
616811.9703 4233084.9949 0.1754
616810.9756 4233210.9612 0.1754
616790.9078 4233215.0077 0.1754
616779.4107 4237193.3837 0.1754
616808.0204 4237174.6701 0.1754
616810.7437 4237210.0735 0.1982
616789.4440 4238192.0276 0.1737
616819.4322 4238197.9417 0.1736
616791.2483 4233061.3042 0.1754
616813.1288 4233063.1297 0.1754
616818.9138 4237264.5404 0.1753
616775.6838 4237242.3824 0.1753
616821.6371 4237335.3474 0.2160
616785.0253 4237329.4074 0.1753
616794.6606 4232880.0160 0.1754
616812.9743 4232878.1786 0.1754
616838.0178 4235489.0099 0.1727
616787.0035 4235500.8011 0.1701
616793.7187 4233038.1089 0.1754
616814.8899 4233040.1479 0.1754
616816.1904 4237299.9439 0.2280
616776.0146 4237286.3619 0.1753
616816.5337 4233234.6995 0.1754
616797.4819 4233240.3415 0.1754
616795.8935 4233015.1965 0.1754
616816.9831 4233017.0344 0.1754
616798.3289 4232911.1076 0.1754
616817.0759 4232908.1651 0.1754
616840.7461 4236672.8196 0.1701
616791.8718 4236680.8615 0.1701
616798.2981 4232991.9692 0.1754
616819.0987 4232994.1676 0.1754
616825.6368 4233595.2613 0.1754
616815.2548 4233609.8800 0.1754
616832.5305 4237112.0331 0.1971
616783.0583 4237139.9834 0.1754
616800.1268 4232944.8861 0.1754
616822.0258 4232944.0748 0.1754
616799.5711 4232968.7568 0.1754
616821.8721 4232970.1511 0.1754
616824.1099 4233254.8753 0.1754
616806.0189 4233263.1743 0.1754
616764.4101 4237022.7812 0.1754
616847.5469 4237046.7710 0.2061
616828.7436 4233427.9869 0.1754
616813.6857 4233417.9925 0.1754
616833.7505 4233642.6596 0.1754
616824.6381 4233658.7292 0.1754
616827.1057 4243900.7268 0.3777
616827.2236 4243928.7266 0.3777
616830.2374 4233549.0482 0.1754
616823.9513 4233581.6276 0.1754
616842.1108 4238368.6007 0.1726
616828.4835 4238411.1391 0.1724
616833.5118 4233272.0981 0.1754
616815.9477 4233282.7055 0.1754
616780.0707 4237082.0044 0.1754
616869.9603 4229876.1097 0.1390
616879.2902 4229886.3959 0.1390
616836.4071 4233504.4123 0.1754
616825.5653 4233462.3872 0.1754
616839.5194 4230298.9190 0.1448
616865.7904 4230324.7297 0.1448
616857.9696 4235575.0736 0.1897
616806.8368 4235586.6970 0.1701
616812.6940 4238499.0533 0.1660
616842.0827 4238477.6076 0.1673
616860.1086 4236765.1168 0.1701
616808.9575 4236776.6979 0.1701
616843.6319 4233411.3405 0.1754
616828.7070 4233396.9630 0.1754
616846.0104 4238455.1120 0.1721
616827.7997 4238144.5807 0.1737
616845.3393 4238192.0076 0.1735
616846.2249 4233287.3980 0.1754
616829.1131 4233302.8047 0.1754
616843.7459 4238510.0393 0.1664
616851.7850 4233612.1118 0.1754
616843.1201 4233627.3493 0.1754
616842.3709 4237368.2514 0.1751
616854.8690 4237420.4895 0.1751
616903.6670 4225993.8184 0.1363
616823.5832 4226035.2805 0.1363
616891.8789 4226995.6185 0.1363
616853.0245 4227023.4056 0.1363
616851.7316 4243900.6233 0.3779
616851.8490 4243928.6231 0.3779
616877.0339 4235661.1278 0.1924
616826.8688 4235672.6646 0.1701
616852.6052 4233675.2233 0.1754
616862.2330 4233660.5985 0.1754
616878.2983 4236852.6831 0.1701
616828.1237 4236862.9566 0.1701
616862.0625 4238379.8629 0.1726
616859.2138 4233301.2145 0.1754
616844.5429 4233317.4400 0.1754
616856.0183 4233467.1523 0.1754
616854.0993 4233435.6450 0.1754
616857.4795 4233567.3460 0.1754
616855.0623 4233602.0528 0.1754
616847.4018 4238556.3843 0.1657
616881.1671 4238526.6710 0.1684
616861.3472 4243825.5017 0.4065
616883.6998 4243884.4943 0.4051
616876.5410 4238472.2693 0.1718
616857.2948 4238503.4534 0.1710
616876.0103 4233316.8670 0.1754
616860.9606 4233332.6846 0.1754
616872.6624 4238190.4116 0.1734
616875.9529 4238238.6286 0.1732
616849.3841 4238240.9738 0.1733
616897.0785 4235745.9648 0.1926
616846.1870 4235757.9777 0.1701
616882.1174 4233630.0151 0.1754
616872.0217 4233645.4362 0.1754
616882.8150 4233416.6325 0.1754
616868.7571 4233432.8987 0.1754
616859.6537 4233394.4971 0.1754
616898.1372 4236942.8760 0.1701
616851.0139 4236955.1574 0.1701
616876.3576 4243900.5204 0.3782
616876.4743 4243928.5202 0.3781
616879.8873 4238285.7858 0.1731
616853.6909 4238288.0625 0.1731
616886.1913 4233448.6845 0.1754
616857.7461 4238334.1909 0.1729
616883.4953 4238332.0426 0.1729
616888.4223 4233680.5967 0.1754
616876.3702 4233693.8911 0.1754
616884.1329 4237478.9163 0.1750
616887.8737 4237548.0297 0.1749
616859.3744 4237545.9664 0.1749
616856.2733 4237484.0364 0.1750
616887.5956 4237596.0493 0.1748
616855.6011 4237595.6940 0.1749
616887.3805 4238377.4026 0.1727
616889.2918 4237638.4539 0.1748
616858.3134 4237641.7428 0.1748
616885.6979 4238514.3513 0.1705
616891.1461 4238574.9028 0.1664
616885.9134 4233587.5311 0.1754
616881.6435 4233622.4974 0.1754
616884.0859 4237405.8089 0.1751
616867.3854 4237342.3793 0.1976
616904.9033 4237361.9982 0.1865
616894.1520 4237680.6162 0.1747
616862.1903 4237683.8536 0.1747
616891.5912 4233333.1096 0.1754
616876.8118 4233347.5614 0.1754
616846.7402 4238611.1012 0.1643
616896.9672 4238623.9662 0.1653
616900.2306 4237727.9465 0.1890
616868.1621 4237732.5830 0.1746
616916.9909 4235831.7665 0.1919
616866.1789 4235843.3726 0.1701
616935.1664 4227062.3705 0.1363
616895.6577 4227086.4026 0.1363
616919.7409 4237028.1942 0.1701
616869.9690 4237039.0465 0.1701
616900.9277 4233430.5053 0.1754
616888.3527 4233448.4141 0.1754
616905.1424 4237776.2827 0.1816
616873.4333 4237778.5463 0.1746
616900.9837 4243900.4182 0.3784
616901.0994 4243928.4179 0.3783
616881.6416 4233472.7100 0.1754
616900.8046 4233459.9997 0.1754
616862.3570 4238672.1200 0.1634
616910.2725 4238674.6928 0.1636
616909.5710 4237823.6914 0.1745
616877.5685 4237827.0240 0.1745
616912.7576 4233654.0618 0.1754
616900.4578 4233667.3980 0.1754
616906.4632 4233348.1925 0.1754
616893.0487 4233362.7507 0.1754
616942.2755 4229805.8486 0.1382
616949.1552 4229811.6687 0.1382
616910.7362 4233705.9615 0.1754
616896.6818 4233716.0760 0.1754
616911.2989 4230223.7016 0.1422
616939.1400 4230250.6399 0.1423
616915.3460 4237874.5144 0.1743
616882.8143 4237878.1422 0.1744
616936.8847 4235917.8554 0.1910
616885.8566 4235929.4441 0.1701
616919.6077 4237925.9157 0.1742
616888.3900 4237928.3408 0.1742
616919.2661 4233444.4173 0.1754
616906.2004 4233461.2377 0.1754
616912.9469 4238507.4966 0.1709
616921.3724 4238546.0124 0.1700
616895.7745 4238551.9783 0.1690
616917.3815 4233609.6451 0.1754
616913.3156 4233645.7703 0.1754
616938.0497 4237111.9427 0.1701
616889.0051 4237122.9840 0.1701
616897.1021 4233488.8659 0.1754
616917.6991 4233481.9976 0.1754
616922.1334 4237985.3212 0.1910
616892.2102 4237986.1968 0.1741
616922.9161 4238037.7899 0.1739
616894.4477 4238038.4725 0.1739
616926.3364 4233362.6330 0.1754
616911.7888 4233381.2223 0.1754
616925.5699 4238088.4208 0.1911
616895.0583 4238089.5923 0.1738
616924.9246 4233728.5659 0.1754
616907.6357 4233736.5434 0.1754
616925.5926 4238585.1555 0.1696
616901.9644 4238586.3906 0.1686
616929.1133 4238137.7460 0.1735
616897.0596 4238139.9460 0.1736
616893.0744 4238717.1492 0.1629
616933.5569 4238722.9247 0.1633
616925.6099 4243900.3169 0.3786
616925.7245 4243928.3167 0.3784
616933.9336 4238186.3883 0.1733
616898.5859 4238188.4986 0.1734
616931.3975 4238626.2090 0.1694
616906.9347 4238631.1840 0.1674
616934.3937 4238235.5602 0.1731
616902.4897 4238236.6271 0.1732
616934.8710 4238283.0166 0.1730
616905.4256 4238283.9186 0.1730
616940.2117 4233683.7786 0.1754
616925.6270 4233694.9867 0.1754
616935.0214 4238328.4471 0.1728
616909.0904 4238329.9326 0.1729
616956.9857 4236002.9918 0.1911
616905.0072 4236015.2782 0.1701
616936.8948 4233458.5287 0.1754
616923.0592 4233474.9211 0.1754
616955.5275 4237187.0193 0.1701
616906.1477 4237198.7617 0.1701
616937.8474 4233756.0985 0.1754
616919.3705 4233764.1244 0.1754
616971.9075 4227117.6394 0.1363
616931.1904 4227144.6255 0.1363
616938.0443 4238373.1598 0.1726
616912.5003 4238375.2918 0.1727
616961.2654 4243885.0775 0.4023
616928.3697 4243828.3157 0.4048
616943.5642 4238666.6817 0.1689
616921.4671 4238676.0141 0.1681
616943.4332 4233376.7413 0.1754
616929.0148 4233394.4311 0.1754
616941.1777 4233490.2893 0.1754
616935.5895 4233496.4846 0.1754
616916.8708 4238751.3924 0.1625
616948.4167 4238747.6103 0.1625
616931.3653 4233793.5499 0.1754
616949.4382 4233787.2070 0.1754
616951.0973 4233638.8679 0.1754
616945.0910 4233678.7398 0.1754
616950.2362 4243900.2167 0.3789
616950.3494 4243928.2165 0.3787
616971.9332 4237260.0722 0.1701
616922.9945 4237270.9783 0.1701
616931.8919 4233518.5283 0.1754
616955.0368 4233510.1131 0.1754
616977.0034 4236089.0035 0.1904
616925.1377 4236101.0865 0.1701
616957.9186 4233710.2194 0.1754
616941.5247 4233719.4980 0.1754
616963.1416 4238704.0468 0.1679
616942.4137 4238717.0871 0.1672
616961.6648 4233391.8261 0.1754
616947.6138 4233409.2085 0.1754
616961.2849 4233820.0287 0.1754
616942.1655 4233826.4888 0.1754
616970.6776 4238389.8858 0.1723
616942.0074 4238415.6611 0.1723
616940.2734 4238777.8936 0.1622
616972.6413 4238770.3249 0.1629
616987.2741 4237332.9399 0.1701
616939.0707 4237343.0509 0.1701
616955.8340 4233748.4218 0.1754
616973.9735 4233739.8164 0.1754
616975.0370 4233490.1569 0.1754
616962.1714 4233507.0755 0.1754
616955.0781 4233473.9835 0.1754
617004.3259 4227168.2830 0.1363
616961.6371 4227193.6790 0.1363
616953.2359 4233530.9320 0.1754
616969.7843 4233523.4453 0.1754
616973.8389 4238582.4056 0.1701
616949.6910 4238583.2253 0.1699
616945.0794 4238542.6962 0.1704
616970.1852 4238538.6449 0.1707
616977.9201 4233851.8381 0.1754
616961.2545 4233864.0114 0.1754
616996.9985 4236176.0046 0.1924
616945.0023 4236187.8632 0.1701
616974.8627 4243900.1179 0.3792
616974.9742 4243928.1177 0.3789
616979.8048 4233405.9719 0.1754
616964.6925 4233423.9517 0.1754
616977.3684 4238616.9611 0.1805
616954.9886 4238621.6023 0.1696
616982.7356 4233674.3873 0.1754
616965.6394 4233710.3582 0.1754
617015.2074 4229721.7095 0.1376
617024.0690 4229730.2901 0.1376
616969.8102 4238753.3822 0.1659
616988.0416 4238737.4113 0.1665
616979.4499 4225965.3769 0.1363
617016.6483 4226059.3115 0.1363
616943.1587 4226090.6567 0.1363
616986.5581 4230153.0186 0.1402
617012.7495 4230185.8403 0.1403
617001.7758 4237405.0863 0.1701
616952.9580 4237414.0821 0.1701
616987.7475 4238648.2145 0.1988
616965.5799 4238657.5738 0.1689
616959.3631 4238493.7539 0.1714
616985.1017 4238504.3493 0.1714
616988.1542 4233774.1854 0.1754
616968.4338 4233780.7958 0.1754
616996.7572 4238795.2724 0.1628
616963.9684 4238802.0869 0.1619
616968.9018 4233556.9668 0.1754
616996.4885 4233544.4455 0.1754
616997.1353 4233507.8590 0.1754
616983.1665 4233524.0985 0.1754
616998.3977 4238410.6087 0.1864
616972.5295 4238425.7733 0.1721
617016.9878 4236263.0520 0.1910
616964.8185 4236274.9641 0.1701
616997.9905 4233421.8865 0.1754
616984.1083 4233439.0410 0.1754
616998.6102 4233806.1827 0.1754
616979.9598 4233812.7684 0.1754
617014.7940 4237478.0117 0.1701
616966.9471 4237486.9369 0.1701
617003.0911 4238678.6262 0.1889
616983.3486 4238691.0242 0.1679
616997.8824 4233898.3000 0.1754
617008.2796 4233883.8593 0.1754
616999.4893 4243900.0206 0.3795
616999.5989 4243928.0204 0.3792
617007.4874 4233712.8972 0.1754
616989.8914 4233753.5507 0.1754
617033.9071 4227217.4901 0.1363
616995.3361 4227243.6835 0.1363
616997.3043 4238783.7743 0.1639
617014.8686 4238767.7097 0.1647
617026.5838 4243885.0775 0.3992
616996.8860 4243831.8498 0.4023
617010.4545 4233830.0823 0.1754
616994.3575 4233840.9823 0.1754
617028.2118 4237551.8943 0.1701
616979.0464 4237559.9374 0.1701
617017.9120 4233438.1203 0.1754
617003.8499 4233455.0911 0.1754
617037.0438 4236351.0088 0.1925
616985.1462 4236363.0870 0.1701
617020.0415 4238825.2094 0.1621
616986.2251 4238826.8016 0.1617
617020.6437 4233527.3187 0.1754
617007.0404 4233544.1501 0.1754
617006.1936 4238721.8696 0.1666
617024.0199 4238706.2901 0.1666
617022.8182 4238498.0632 0.1716
617018.8514 4238520.9509 0.1965
617040.9922 4237625.0189 0.1701
616991.9849 4237634.0072 0.1701
617007.1030 4238436.7739 0.1719
617029.8856 4238427.8328 0.1722
617024.1161 4243899.9252 0.3800
617024.2234 4243927.9250 0.3797
617000.0597 4233589.8058 0.1754
617042.9063 4233581.6433 0.1754
617033.8878 4233752.6591 0.1754
617017.9855 4233794.5259 0.1754
617032.2482 4233854.6624 0.1754
617019.6567 4233869.3032 0.1754
617039.3801 4238797.8669 0.1631
617020.5515 4238811.6523 0.1627
617057.0193 4236439.8551 0.1891
617005.1600 4236451.3784 0.1701
617040.0692 4233456.7519 0.1754
617025.2908 4233473.6161 0.1754
617071.1291 4227265.5815 0.1363
617025.0503 4227295.6064 0.1363
617054.0862 4237698.9055 0.1701
617004.0648 4237707.0515 0.1701
617047.4387 4233901.9137 0.1754
617043.4300 4233919.0686 0.1754
617045.6177 4233547.3832 0.1754
617032.7606 4233563.9799 0.1754
617025.5682 4238855.0261 0.1614
617038.1198 4238840.8435 0.1617
617032.5472 4238751.6540 0.1649
617050.3245 4238735.4081 0.2018
617061.9118 4238508.3019 0.2269
617066.7212 4237772.1742 0.1701
617016.8487 4237780.9572 0.1701
617048.7430 4243899.8319 0.3806
617048.8478 4243927.8317 0.3801
617017.1751 4238923.3017 0.1606
617041.6627 4238891.7361 0.1609
617050.9246 4238931.7937 0.1604
617059.3413 4238830.2740 0.1619
617055.3777 4233789.3600 0.1754
617044.8819 4233829.8287 0.1754
617084.9805 4229638.7620 0.1372
617097.4834 4229648.2530 0.1372
617056.1718 4233869.3883 0.1754
617051.3701 4233885.0101 0.1754
617036.9619 4238465.0613 0.1718
617054.3762 4238459.5899 0.1954
617076.9185 4236528.8859 0.1903
617025.0411 4236540.2763 0.1701
617063.7963 4230084.9593 0.1389
617093.1501 4230115.5815 0.1389
617016.1899 4238961.6283 0.1603
617060.1875 4238971.8559 0.1602
617062.7550 4233476.9912 0.1754
617048.8442 4233493.2368 0.1754
617039.4323 4238871.8434 0.1611
617053.9710 4238882.5507 0.1610
617079.1667 4237846.1715 0.1701
617030.0586 4237854.8413 0.1701
617017.7430 4239013.7861 0.1599
617074.9260 4239035.6000 0.1597
617071.9370 4233566.6749 0.1754
617058.3141 4233584.7511 0.1754
617104.6107 4226044.3574 0.1363
617106.2065 4225940.8352 0.1655
617078.4511 4238769.2966 0.1657
617058.7378 4238783.7190 0.1633
617098.5665 4227295.2448 0.1363
617064.1548 4227338.8760 0.1363
617038.9118 4233628.8592 0.1754
617086.5609 4233612.6781 0.1754
617074.7506 4233819.5240 0.1754
617086.7085 4239100.2135 0.1595
617014.2105 4239080.7643 0.1595
617092.4854 4243883.3279 0.3957
617061.5073 4243836.4516 0.3994
617092.2169 4237919.8624 0.1701
617042.0696 4237928.0585 0.1701
617097.0034 4236617.9290 0.1911
617045.0969 4236629.8140 0.1701
617073.3703 4243899.7411 0.3811
617073.4719 4243927.7409 0.3804
617001.0725 4239170.9517 0.1590
617100.7051 4239176.9691 0.1592
617076.5739 4233869.2621 0.1754
617081.9397 4233883.0453 0.1754
617085.9987 4233496.9472 0.1754
617072.8776 4233512.9223 0.1754
617095.4277 4233913.0482 0.1754
617088.0943 4233897.7676 0.1754
617083.9839 4238903.9977 0.1608
617060.6913 4238909.3860 0.1608
617077.0543 4238876.4136 0.1610
617088.3493 4233791.7229 0.1754
617104.8598 4237993.0904 0.1701
617054.9469 4238002.0695 0.1701
617050.0812 4233713.1918 0.1754
617089.8590 4233704.8366 0.1950
617081.2659 4233752.6591 0.2116
617092.7000 4238942.9681 0.1607
617069.2859 4238947.9861 0.1607
617097.3376 4233586.1567 0.1754
617084.7692 4233603.2924 0.1754
617102.3474 4238809.0121 0.1622
617080.6282 4238819.6874 0.1621
617116.9729 4236707.9178 0.1911
617064.8546 4236718.9229 0.1701
617126.4337 4239330.7066 0.1591
617021.1780 4239285.7427 0.1587
617062.7330 4233678.8168 0.1754
617100.1643 4233669.7306 0.1754
617100.9042 4238982.3780 0.1608
617077.4756 4238987.1304 0.1608
617097.9978 4243899.6532 0.3818
617098.0958 4243927.6531 0.3807
617117.9362 4238067.0438 0.1701
617068.0111 4238075.9820 0.1701
617092.1844 4233856.6453 0.1754
617104.1294 4233863.9937 0.1754
617152.3366 4226523.7580 0.1363
617090.6795 4226567.1287 0.1363
617031.0290 4226468.0916 0.1363
617100.9461 4226434.3414 0.1363
617125.4092 4227363.6673 0.1363
617118.9125 4227367.6967 0.1363
617109.8601 4233515.7570 0.1754
617097.5204 4233532.0938 0.1754
617078.8865 4233644.8941 0.1754
617111.0025 4233638.1574 0.1754
617108.6915 4239021.9055 0.1609
617085.2751 4239026.4644 0.1609
617114.0591 4238836.2714 0.1843
617091.3569 4238844.5754 0.1615
617131.0477 4238140.8582 0.1701
617082.0181 4238150.0226 0.1701
617135.9854 4236796.9332 0.1931
617083.9807 4236808.1258 0.1701
617116.2273 4239061.5458 0.1611
617092.7956 4239065.9258 0.1610
617099.4130 4233835.2930 0.1754
617112.6084 4233836.2422 0.1754
617108.7184 4233777.5591 0.1754
617097.2707 4233778.3808 0.1847
617097.8667 4233748.7803 0.1754
617108.6793 4233749.8035 0.1754
617058.0413 4226351.2643 0.1363
617109.7106 4226329.1314 0.1363
617143.4353 4226413.9035 0.1363
617111.8825 4233806.5462 0.1754
617099.1828 4233807.8396 0.1754
617038.5322 4239412.5258 0.1587
617150.5610 4239474.8756 0.1593
617103.2202 4233722.2636 0.1754
617112.3517 4233724.5381 0.1754
617127.6454 4233605.9408 0.1754
617114.8764 4233625.6485 0.1754
617122.6558 4238863.9774 0.1839
617099.6716 4238870.1893 0.1611
617116.8563 4233871.0738 0.1754
617130.3357 4233878.2230 0.1996
617123.5309 4239101.2663 0.1612
617100.0864 4239105.5122 0.1612
617150.4493 4229547.3359 0.1368
617169.3107 4229562.6337 0.1368
617122.6256 4243899.5689 0.3825
617122.7193 4243927.5688 0.3812
617109.3803 4233699.9709 0.1754
617117.7692 4233702.2541 0.1754
617144.7791 4238214.9854 0.1701
617095.9314 4238223.9642 0.1701
617130.2695 4238892.8506 0.1763
617106.9782 4238898.5803 0.1608
617107.1878 4239145.2003 0.1612
617130.6403 4239141.0654 0.1612
617134.7575 4233533.0702 0.1754
617123.0532 4233550.6167 0.1754
617115.1583 4233680.0167 0.1754
617122.8883 4233682.0441 0.1877
617117.5298 4243841.4517 0.3966
617140.3078 4243884.4943 0.3930
617142.8343 4230023.5939 0.1381
617165.6014 4230063.5212 0.1381
617154.9955 4236884.9045 0.1915
617103.0796 4236896.2500 0.1701
617114.1321 4239184.9762 0.1612
617137.5889 4239180.9337 0.1613
617139.3480 4238933.0682 0.1748
617116.0717 4238937.9623 0.1607
617126.2045 4233704.3112 0.1754
617130.7375 4233683.8840 0.1953
617129.0191 4233750.6413 0.1754
617131.1801 4233774.8276 0.1960
617120.0699 4233776.4009 0.1754
617119.1002 4233750.4514 0.1754
617058.3057 4239534.3771 0.1591
617166.7015 4239571.3207 0.1596
617121.7240 4233726.3680 0.1754
617131.2276 4233728.1148 0.2153
617163.5241 4227426.7516 0.1363
617156.7286 4227430.7859 0.1363
617124.0835 4233804.7901 0.1754
617135.9769 4233802.7599 0.2097
617159.9121 4238289.0066 0.1701
617110.9391 4238299.8333 0.1701
617126.0820 4233837.0311 0.1754
617139.7512 4233837.0466 0.1754
617134.8530 4233705.8903 0.1907
617144.4045 4239220.8641 0.1614
617120.9463 4239224.8292 0.1614
617147.6332 4238972.9177 0.1684
617124.2888 4238977.6353 0.1608
617138.5566 4233685.6122 0.1837
617147.2540 4243899.4889 0.3834
617147.3424 4243927.4887 0.3817
617127.6517 4239264.7508 0.1615
617151.1088 4239260.8510 0.1615
617156.8246 4233624.7198 0.1754
617145.0901 4233644.0233 0.1754
617234.1691 4226643.7599 0.1363
617127.5369 4226677.4168 0.1363
617172.8524 4236974.2249 0.1718
617121.5352 4236983.9218 0.1701
617181.3259 4225974.5017 0.1363
617168.4705 4226032.3637 0.1363
617155.5130 4239012.8274 0.1970
617132.1099 4239017.3751 0.1609
617161.0396 4233550.9435 0.1754
617150.1409 4233567.8318 0.1754
617134.2667 4239304.7352 0.1614
617157.7210 4239300.8899 0.1615
617076.0233 4239652.3603 0.1600
617187.5266 4239695.7577 0.1620
617176.8982 4238364.0114 0.1701
617128.9126 4238375.7669 0.1701
617163.0908 4239052.7859 0.1696
617139.6591 4239057.1659 0.1611
617164.2574 4239340.9774 0.1614
617140.8076 4239344.7775 0.1614
617170.4201 4239092.7745 0.1966
617146.9755 4239097.0204 0.1612
617167.6218 4226309.4953 0.1363
617196.1891 4226392.9382 0.1363
617189.2013 4237060.2049 0.1722
617139.3201 4237070.6669 0.1701
617147.2890 4239384.8737 0.1610
617170.7328 4239381.1103 0.1610
617159.5756 4243851.8664 0.3941
617175.2998 4243883.9111 0.3912
617171.8830 4243899.4141 0.3842
617171.9648 4243927.4139 0.3822
617193.1891 4238437.0420 0.1701
617146.9749 4238447.7655 0.1701
617200.6198 4227502.3450 0.1363
617187.7955 4227506.4276 0.1363
617177.1609 4239421.2862 0.1604
617153.7244 4239425.0208 0.1604
617177.5454 4239132.7955 0.1693
617154.0928 4239136.9305 0.1613
617094.3536 4239775.2505 0.1614
617207.7229 4239816.4380 0.1673
617171.0286 4233660.0720 0.1754
617182.8454 4233640.0257 0.1754
617183.5549 4239461.5029 0.1595
617160.1269 4239465.2164 0.1596
617184.5024 4239172.8488 0.1613
617161.0457 4239176.8913 0.1613
617188.9678 4233565.0640 0.1754
617179.8916 4233585.1094 0.1754
617205.3453 4229465.1833 0.1366
617227.0397 4229476.8631 0.1366
617204.2293 4237135.2934 0.1725
617153.9954 4237144.7093 0.1701
617189.9282 4239501.7581 0.1587
617166.5100 4239505.4586 0.1588
617191.3207 4239212.9340 0.2034
617167.8626 4239216.8991 0.1614
617208.2747 4238510.1313 0.1701
617162.0440 4238518.8969 0.1701
617196.2947 4239542.0501 0.1582
617172.8878 4239545.7461 0.1583
617113.1483 4239899.4177 0.1636
617227.2097 4239932.8783 0.1720
617198.0232 4239253.0512 0.1687
617174.5660 4239256.9511 0.1615
617196.5130 4243899.3459 0.3848
617196.5863 4243927.3458 0.3825
617218.1048 4237209.0903 0.1724
617168.2549 4237218.8986 0.1701
617232.9418 4226748.8848 0.1363
617174.5098 4226760.5313 0.1363
617179.2758 4239586.0780 0.1584
617202.6700 4239582.3769 0.1585
617204.6296 4239293.1992 0.1615
617181.1753 4239297.0446 0.1615
617218.7024 4233686.4451 0.1754
617222.1771 4238582.9778 0.1701
617174.0859 4238591.0952 0.1701
617209.0717 4239622.7367 0.1601
617185.6921 4239626.4545 0.1599
617234.5880 4227570.8224 0.1363
617224.4275 4227578.2473 0.1363
617195.3653 4243848.4578 0.3932
617217.2902 4243883.9111 0.3896
617211.1570 4239333.3771 0.1850
617187.7072 4239337.1772 0.1614
617217.0619 4233577.9883 0.1754
617205.9194 4233598.8854 0.1754
617215.5228 4239663.1273 0.1630
617192.1601 4239666.8761 0.1625
617232.9912 4237283.9945 0.1728
617183.0961 4237293.7981 0.1701
617217.6205 4239373.5836 0.1656
617194.1766 4239377.3470 0.1610
617231.8088 4229961.2369 0.1375
617263.8132 4230006.4128 0.1375
617234.5984 4238655.1319 0.1701
617185.8671 4238663.0328 0.1701
617269.1018 4226016.0087 0.1363
617253.6120 4240078.9480 0.1772
617133.7539 4240028.6498 0.1670
617198.7080 4239707.3458 0.1665
617222.0506 4239703.5467 0.1674
617221.1444 4243899.2864 0.3852
617221.2064 4243927.2863 0.3825
617224.0340 4239413.8172 0.1603
617200.5974 4239417.5517 0.1603
617229.4333 4226289.4448 0.1363
617228.6959 4239743.9930 0.1730
617205.3783 4239747.8709 0.1717
617247.0136 4237358.9754 0.1905
617196.8998 4237367.8002 0.1701
617230.4109 4239454.0759 0.1813
617206.9829 4239457.7894 0.1595
617246.8129 4238727.8066 0.1701
617197.0276 4238735.8687 0.1701
617235.5189 4239784.4568 0.1795
617212.2317 4239788.4444 0.1763
617236.7644 4239494.3572 0.2011
617213.3463 4239498.0577 0.1587
617257.0404 4229366.9978 0.1364
617279.1861 4229378.5223 0.1364
617219.2998 4239828.9623 0.1847
617242.5616 4239824.8976 0.1861
617258.8803 4238800.4585 0.1701
617208.9435 4238808.8962 0.1701
617243.1085 4239534.6581 0.1582
617219.7016 4239538.3541 0.1582
617262.4654 4233609.0061 0.1754
617260.0122 4237432.9043 0.1843
617211.0331 4237442.1453 0.1701
617157.2546 4240156.9385 0.1716
617275.3819 4240199.3893 0.1774
617268.4657 4227647.8856 0.1363
617233.0833 4243852.8313 0.3924
617245.8584 4243882.0022 0.3893
617245.7875 4243899.2471 0.3853
617245.8149 4243927.2471 0.3821
617226.4160 4239869.4147 0.1892
617249.6623 4239865.3302 0.1921
617249.4583 4239574.9747 0.1603
617226.0641 4239578.6758 0.1587
617271.0392 4238873.5773 0.1701
617221.0131 4238881.8757 0.1701
617255.8310 4239615.3011 0.1859
617232.4514 4239619.0189 0.1603
617256.7857 4239905.7835 0.1970
617233.5526 4239909.8747 0.1937
617273.8962 4237507.0491 0.1701
617224.7984 4237515.9857 0.1701
617233.6388 4233660.8744 0.1754
617274.5098 4233685.7312 0.1754
617258.9290 4233710.6012 0.1754
617262.2482 4239655.6297 0.1806
617238.8855 4239659.3785 0.1633
617263.9264 4239946.2635 0.2005
617240.7060 4239950.3586 0.1998
617297.0543 4240319.2911 0.1859
617183.6719 4240276.6031 0.1774
617283.1511 4238947.2381 0.1701
617233.8752 4238955.8104 0.1701
617268.7359 4239695.9486 0.1682
617245.3932 4239699.7476 0.1678
617247.8727 4239990.8686 0.1986
617271.0807 4239986.7715 0.2026
617287.0870 4237581.0717 0.2044
617238.0260 4237589.9719 0.1701
617270.4229 4243899.2297 0.3859
617270.4311 4243927.2298 0.3814
617275.3313 4239736.2370 0.2011
617252.0136 4239740.1150 0.1735
617269.8898 4243857.5338 0.3928
617269.8898 4243882.8760 0.3892
617278.2458 4240027.3082 0.2035
617255.0500 4240031.4059 0.2034
617301.5331 4227730.1477 0.1363
617296.2631 4227732.5269 0.1363
617296.0966 4239021.3402 0.1701
617246.0818 4239029.8020 0.1701
617282.0933 4239776.4816 0.2109
617258.8061 4239780.4692 0.1800
617300.9806 4237655.0095 0.2116
617251.1369 4237664.0295 0.1701
617285.4199 4240067.8742 0.2035
617262.2360 4240071.9714 0.2002
617265.8235 4239820.8330 0.1866
617289.0853 4239816.7683 0.1869
617302.0437 4229268.6051 0.1363
617324.7869 4229277.6409 0.1363
617209.8552 4240388.1410 0.1845
617316.5689 4240427.2550 0.1936
617294.1553 4226273.2210 0.1363
617320.5779 4226352.3770 0.1363
617286.9302 4243882.4391 0.3901
617291.2064 4233661.8260 0.1754
617247.8881 4233634.7355 0.1754
617307.9916 4233637.1614 0.1754
617269.4291 4240112.5656 0.2020
617292.6011 4240108.4699 0.2030
617308.8370 4239095.1366 0.1701
617258.8573 4239103.8402 0.1701
617291.2808 4243899.2892 0.3854
617291.1153 4243927.1993 0.3807
617296.1550 4239857.1612 0.2126
617272.9086 4239861.2457 0.1926
617314.0490 4237728.9398 0.1701
617264.1074 4237737.8732 0.1701
617299.7882 4240149.0954 0.2025
617276.6279 4240153.1890 0.1985
617311.4550 4233715.8716 0.1754
617298.5197 4233733.0553 0.1754
617303.2519 4239897.6009 0.2048
617280.0188 4239901.6922 0.1973
617321.1101 4239169.2566 0.1701
617272.0072 4239177.7311 0.1701
617306.9796 4240189.7511 0.2021
617283.8309 4240193.8416 0.2000
617328.6366 4226816.4140 0.1363
617257.3438 4226824.2437 0.1363
617334.3146 4226735.4511 0.1363
617232.2335 4240491.1477 0.1923
617333.4609 4240520.7097 0.1995
617310.3672 4239938.0733 0.2132
617287.1468 4239942.1684 0.2007
617326.9689 4237802.8812 0.1911
617276.8983 4237811.2240 0.1701
617337.3581 4227815.9164 0.1363
617329.0584 4227818.9341 0.1363
617330.8107 4229893.8203 0.1371
617361.4176 4229955.7643 0.1371
617291.0367 4240234.5239 0.1994
617314.1740 4240230.4372 0.2019
617336.3801 4226032.5794 0.1363
617332.0145 4226108.3080 0.1363
617265.9273 4226118.3458 0.1363
617311.5644 4243899.4474 0.3825
617311.0861 4243927.6466 0.3797
617317.4967 4239978.5774 0.2224
617294.2887 4239982.6744 0.2028
617334.0792 4239242.9963 0.1701
617285.0045 4239251.8588 0.1701
617302.0763 4243845.8100 0.3966
617325.1822 4243879.8287 0.3983
617321.3698 4240271.1539 0.2017
617298.2437 4240275.2358 0.1992
617339.9727 4237875.9162 0.1756
617290.0496 4237885.2628 0.1701
617324.6375 4240019.1130 0.2036
617301.4417 4240023.2106 0.2036
617300.0868 4233973.3156 0.1754
617328.5394 4233981.6741 0.1754
617324.0074 4234034.2872 0.1754
617287.0941 4234034.1089 0.1754
617302.4334 4234099.9712 0.1754
617335.2700 4234083.8529 0.1754
617251.3494 4240594.3119 0.2004
617354.2754 4240635.8650 0.2076
617305.4501 4240315.9773 0.1987
617328.5651 4240311.9015 0.2015
617347.0815 4239316.7970 0.1701
617297.0502 4239324.9745 0.1701
617331.7876 4240059.6799 0.2336
617308.6037 4240063.7771 0.2035
617344.1613 4229165.2861 0.1362
617366.9459 4229174.9262 0.1363
617312.6533 4240356.7484 0.1988
617335.7575 4240352.6801 0.2012
617351.6608 4233671.5034 0.1754
617331.7863 4233693.4640 0.1754
617328.9051 4233764.0695 0.1754
617345.0486 4233753.6011 0.1754
617352.9580 4237949.9952 0.1701
617302.9154 4237958.1245 0.1701
617317.4727 4233924.1829 0.1754
617343.3762 4233933.8005 0.1754
617338.9452 4240100.2783 0.2030
617315.7731 4240104.3741 0.2030
617311.8337 4243974.7721 0.3786
617311.3188 4243954.2434 0.3786
617336.3456 4243954.0859 0.3782
617336.1511 4243974.5430 0.3781
617337.1084 4243928.4838 0.3793
617336.3305 4243999.4850 0.3785
617312.3325 4243999.7667 0.3790
617337.7197 4243899.5989 0.3807
617336.5953 4244024.4600 0.3791
617312.5964 4244024.6899 0.3794
617336.8344 4244049.4091 0.3795
617312.8355 4244049.6393 0.3798
617337.0738 4244074.3584 0.3798
617313.0749 4244074.5886 0.3800
617337.3131 4244099.3077 0.3799
617313.3142 4244099.5379 0.3801
617337.5524 4244124.2569 0.3799
617313.5535 4244124.4872 0.3801
617337.7917 4244149.2062 0.3800
617313.7928 4244149.4364 0.3801
617338.0311 4244174.1555 0.3800
617314.0322 4244174.3857 0.3801
617338.2704 4244199.1048 0.3800
617314.2715 4244199.3350 0.3801
617338.5097 4244224.0541 0.3800
617314.5108 4244224.2843 0.3800
617338.7490 4244249.0033 0.3799
617314.7501 4244249.2335 0.3800
617338.9883 4244273.9526 0.3799
617314.9894 4244274.1828 0.3799
617339.2277 4244298.9019 0.3798
617315.2288 4244299.1321 0.3798
617339.4670 4244323.8512 0.3797
617315.4681 4244324.0814 0.3797
617339.7063 4244348.8004 0.3796
617315.7074 4244349.0307 0.3796
617319.8502 4240397.5486 0.1998
617342.9439 4240393.4900 0.2007
617339.9456 4244373.7497 0.3794
617315.9467 4244373.9799 0.3794
617340.1849 4244398.6990 0.3793
617316.1860 4244398.9292 0.3793
617358.9368 4239390.5246 0.1701
617310.0448 4239399.0965 0.1701
617340.4243 4244423.6483 0.3791
617316.4254 4244423.8785 0.3791
617340.6636 4244448.5976 0.3789
617316.6647 4244448.8278 0.3789
617340.9029 4244473.5468 0.3789
617316.9040 4244473.7770 0.3789
617341.1422 4244498.4961 0.3788
617317.1433 4244498.7263 0.3788
617341.3816 4244523.4454 0.3790
617317.3827 4244523.6756 0.3790
617341.6209 4244548.3947 0.3793
617317.6220 4244548.6249 0.3793
617341.8602 4244573.3439 0.3798
617317.8613 4244573.5742 0.3798
617342.0995 4244598.2932 0.3806
617318.1006 4244598.5234 0.3806
617342.3388 4244623.2425 0.3816
617318.3399 4244623.4727 0.3816
617342.5782 4244648.1918 0.3830
617318.5793 4244648.4220 0.3830
617342.8175 4244673.1411 0.3847
617318.8186 4244673.3713 0.3847
617343.0568 4244698.0903 0.3865
617319.0579 4244698.3205 0.3865
617346.1088 4240140.9083 0.2345
617322.9485 4240145.0018 0.2025
617343.2961 4244723.0396 0.3882
617319.2972 4244723.2698 0.3883
617343.5354 4244747.9889 0.3896
617319.5366 4244748.2191 0.3897
617268.7359 4240701.0820 0.2091
617371.2815 4240729.9508 0.2152
617343.7748 4244772.9382 0.3914
617319.7759 4244773.1684 0.3915
617344.0141 4244797.8874 0.3931
617320.0152 4244798.1177 0.3932
617344.2534 4244822.8367 0.3945
617320.2545 4244823.0669 0.3945
617344.4927 4244847.7860 0.3957
617320.4938 4244848.0162 0.3957
617368.5655 4227898.1301 0.1363
617362.2222 4227900.7033 0.1363
617344.7321 4244872.7353 0.3968
617320.7332 4244872.9655 0.3968
617344.9714 4244897.6846 0.3979
617320.9725 4244897.9148 0.3979
617345.2107 4244922.6338 0.3988
617321.2118 4244922.8640 0.3988
617345.4500 4244947.5831 0.3995
617321.4511 4244947.8133 0.3995
617345.6893 4244972.5324 0.4001
617321.6904 4244972.7626 0.4001
617345.9287 4244997.4817 0.4006
617321.9298 4244997.7119 0.4006
617346.1680 4245022.4309 0.4009
617322.1691 4245022.6612 0.4009
617365.0301 4238022.9960 0.1847
617316.0723 4238032.1249 0.1701
617346.4073 4245047.3802 0.4010
617322.4084 4245047.6104 0.4010
617346.6466 4245072.3295 0.4011
617322.6477 4245072.5597 0.4011
617346.8859 4245097.2788 0.4011
617322.8871 4245097.5090 0.4011
617350.1195 4240434.3314 0.2003
617327.0356 4240438.3769 0.1986
617347.1253 4245122.2281 0.4011
617323.1264 4245122.4583 0.4011
617347.3646 4245147.1773 0.4011
617323.3657 4245147.4075 0.4011
617363.5877 4234128.5517 0.1754
617339.8157 4234150.6258 0.1754
617347.6039 4245172.1266 0.4011
617323.6050 4245172.3568 0.4010
617347.8432 4245197.0759 0.4011
617323.8443 4245197.3061 0.4010
617348.0826 4245222.0252 0.4010
617324.0837 4245222.2554 0.4008
617348.3219 4245246.9744 0.4008
617324.3230 4245247.2047 0.4006
617348.5612 4245271.9237 0.4005
617324.5623 4245272.1539 0.4003
617348.8005 4245296.8730 0.4000
617324.8016 4245297.1032 0.3998
617332.1572 4233881.8250 0.1754
617353.9106 4233886.0128 0.1754
617349.0398 4245321.8223 0.3993
617325.0409 4245322.0525 0.3991
617349.2792 4245346.7716 0.3984
617325.2803 4245347.0018 0.3980
617349.5185 4245371.7208 0.3972
617325.5196 4245371.9510 0.3967
617349.7578 4245396.6701 0.3959
617325.7589 4245396.9003 0.3954
617349.9949 4245421.6217 0.3949
617325.9960 4245421.8473 0.3943
617353.2771 4240181.5700 0.2021
617330.1284 4240185.6605 0.2021
617350.3823 4245446.4107 0.3945
617326.3968 4245446.9560 0.3940
617356.5986 4226254.7760 0.1363
617381.1823 4226330.3981 0.1363
617351.5697 4245471.3574 0.3954
617326.4687 4245471.9983 0.3949
617353.9879 4245516.7974 0.3996
617354.1146 4245538.2477 0.4006
617323.2139 4245537.8738 0.4001
617323.7890 4245516.4163 0.3993
617324.4343 4245495.7927 0.3974
617353.9596 4245496.3539 0.3977
617371.8899 4239464.7246 0.1701
617322.9391 4239473.0517 0.1701
617334.2017 4240479.2322 0.1994
617357.2766 4240475.2048 0.2000
617339.6587 4233795.3276 0.1754
617361.8956 4233791.4966 0.1754
617349.3115 4243852.6353 0.4017
617357.7812 4243895.5940 0.4026
617360.4486 4240222.2638 0.2268
617337.3113 4240226.3505 0.2019
617377.9081 4238097.1403 0.1807
617328.7215 4238105.0419 0.1701
617339.4552 4233834.8657 0.1754
617362.7072 4233838.4120 0.1754
617341.3402 4240520.1265 0.2000
617364.4058 4240516.1154 0.2008
617287.8971 4240815.0817 0.2193
617395.1561 4240866.7241 0.2278
617367.6219 4240262.9901 0.2071
617344.4958 4240267.0720 0.2017
617384.9487 4239538.2260 0.1701
617334.9232 4239546.8683 0.1701
617348.4687 4240561.0642 0.2024
617371.5238 4240557.0628 0.2031
617375.0261 4229069.8959 0.1362
617402.6868 4229077.4929 0.1362
617390.0802 4238170.2173 0.1939
617341.0797 4238178.8137 0.1701
617374.7950 4240303.7497 0.2151
617351.6801 4240307.8256 0.2015
617370.2436 4233734.8828 0.1754
617392.0900 4233719.5165 0.1754
617397.2876 4227982.3781 0.1363
617385.9190 4227984.9882 0.1363
617378.6374 4240598.0434 0.2059
617355.5932 4240602.0376 0.2053
617356.5994 4233989.0767 0.1754
617378.2458 4233994.7368 0.1754
617374.4900 4234030.5428 0.1754
617352.7145 4234031.9506 0.1754
617407.0186 4226746.0869 0.1363
617392.8886 4226823.4121 0.1363
617397.0836 4239612.4526 0.1701
617347.9524 4239620.7731 0.1701
617379.6787 4245517.2584 0.3987
617379.2544 4245538.1004 0.3998
617381.9659 4240344.5434 0.2169
617358.8617 4240348.6117 0.2012
617399.0778 4226039.4677 0.1841
617397.5097 4226106.2757 0.1363
617379.9718 4245496.3295 0.3973
617383.6601 4234062.1617 0.1754
617362.7815 4234072.5111 0.1754
617362.7146 4240643.0439 0.2085
617385.7477 4240639.0563 0.2090
617380.7902 4234186.9550 0.1754
617399.4192 4234165.0168 0.1754
617402.0205 4238244.1770 0.1903
617353.9081 4238252.0244 0.1701
617308.6222 4240932.4153 0.2311
617413.5778 4240972.2586 0.2387
617369.3942 4233941.9439 0.1754
617391.2263 4233948.2811 0.1754
617389.1314 4240385.3727 0.2030
617366.0376 4240389.4314 0.2008
617369.8338 4240684.0828 0.2117
617392.8557 4240680.1012 0.2122
617410.0660 4239686.2017 0.1701
617360.0357 4239694.8369 0.1701
617423.2183 4243921.1573 0.4049
617360.9395 4243961.0449 0.4034
617396.2873 4240426.2404 0.2334
617373.2034 4240430.2859 0.2004
617413.0737 4238319.0824 0.1724
617366.1924 4238326.2425 0.1701
617405.0290 4234090.9926 0.1754
617385.5189 4234108.8331 0.1754
617376.9517 4240725.1539 0.2151
617399.9624 4240721.1780 0.2156
617419.4896 4228062.9290 0.1363
617407.8656 4228066.5434 0.1363
617384.5090 4233892.5784 0.1754
617404.8180 4233898.2764 0.1754
617401.8410 4228972.3075 0.1362
617425.5509 4228977.7473 0.1362
617403.4264 4240467.1501 0.2006
617380.3515 4240471.1775 0.2003
617446.7521 4244007.3042 0.4049
617363.3035 4244065.0598 0.4038
617423.0131 4239760.0050 0.1701
617372.9649 4239768.9135 0.1701
617407.0685 4240762.2863 0.2191
617384.0691 4240766.2571 0.2186
617391.6949 4233785.9950 0.1754
617416.1373 4233782.4470 0.1754
617331.3859 4241043.3354 0.2434
617433.6237 4241087.0974 0.2514
617406.6621 4245517.7054 0.3976
617406.0545 4245539.0749 0.3986
617406.8100 4245496.3082 0.3966
617410.5369 4240508.0933 0.2291
617387.4713 4240512.1044 0.2014
617423.9556 4238390.0986 0.1717
617378.9147 4238398.2424 0.1701
617366.3663 4244158.8699 0.4038
617459.8595 4244110.8905 0.4045
617460.8481 4244223.4921 0.4040
617369.2280 4244284.7844 0.4036
617455.4003 4244438.4184 0.4030
617372.0897 4244490.8264 0.4028
617369.2280 4244379.2203 0.4032
617391.1865 4240807.3921 0.2223
617414.1745 4240803.4262 0.2228
617459.3128 4244333.3450 0.4034
617393.3206 4233842.7434 0.1754
617415.9017 4233845.2797 0.1754
617421.9504 4226239.6428 0.1363
617441.9703 4226306.5621 0.1363
617457.9021 4244553.6698 0.4025
617372.0897 4244590.9856 0.4024
617417.6339 4240549.0599 0.2220
617394.5789 4240553.0613 0.2037
617436.2581 4239833.8493 0.1701
617386.1185 4239843.0229 0.1701
617398.3044 4240848.5588 0.2262
617421.2810 4240844.5975 0.2266
617438.5446 4228146.3293 0.1363
617429.4543 4228147.9987 0.1363
617413.3898 4234217.0637 0.1754
617433.0377 4234199.1021 0.1754
617440.0566 4238455.1534 0.1916
617395.1719 4238468.6843 0.1701
617424.7257 4240590.0550 0.2080
617401.6815 4240594.0492 0.2064
617427.7103 4228867.8813 0.1362
617444.7169 4228871.3217 0.1362
617438.6230 4234120.1834 0.1754
617419.3488 4234143.5023 0.1754
617449.8659 4241180.1463 0.2618
617353.6368 4241145.9953 0.2556
617405.4232 4240889.7569 0.2303
617428.3883 4240885.8001 0.2307
617404.6086 4227236.5897 0.1363
617386.9968 4227180.1024 0.1363
617434.9622 4227163.7704 0.1363
617449.2124 4227227.9611 0.1363
617445.9400 4229793.6428 0.1368
617519.0113 4229872.5400 0.1368
617417.6749 4244658.4175 0.4021
