605104.9544 4236524.7367 0.0630
605107.7117 4235523.0455 0.0630
605108.4746 4237085.4528 0.0630
618593.0548 4238171.7392 0.0300
627273.9219 4264144.2425 0.0200
627269.1103 4259590.1178 0.0200
605111.7061 4236545.1554 0.0630
605111.1101 4235502.1697 0.0630
627278.9478 4273622.5720 0.0200
627231.2943 4245262.5361 0.0200
627201.7997 4273561.0711 0.0200
627186.4816 4259645.2304 0.0200
605110.8860 4236561.9920 0.0630
605117.5506 4237072.0199 0.0630
627174.9652 4264131.6215 0.0200
605120.5841 4235300.7403 0.0230
605119.1097 4235310.7045 0.0600
618778.2677 4237906.9423 0.0500
605121.9557 4235290.8712 0.0232
627132.9739 4245246.3382 0.0200
627126.9630 4269121.8793 0.0200
627127.5723 4269066.3892 0.0200
627127.0964 4269094.0741 0.0200
631420.7281 4273748.8952 0.0340
627128.5756 4273492.0699 0.0200
618601.4154 4238541.3245 0.0500
627076.0086 4264119.0004 0.0200
605121.6029 4236531.6089 0.0630
627103.8529 4259700.3430 0.0200
627054.8113 4273421.7789 0.0220
605126.6336 4237054.9686 0.0630
627061.1851 4269063.7832 0.0200
627060.0474 4269092.9049 0.0200
627059.8686 4269122.1865 0.0200
627034.6535 4245230.1402 0.0200
618966.9911 4237703.1015 0.0500
605128.1675 4236558.8812 0.0630
605132.3135 4240830.1079 0.0230
605129.2928 4235536.2446 0.0630
605128.6313 4235511.5274 0.0630
627031.9376 4259768.7906 0.0200
627012.5165 4273329.8573 0.0220
605133.4643 4236543.2066 0.0630
618641.4624 4236194.1038 0.0500
627038.2333 4273302.1900 0.0220
627005.0120 4273268.8855 0.0220
626995.1754 4269060.3207 0.0200
626993.9352 4269091.1926 0.0200
626992.7448 4269120.9911 0.0200
626977.8946 4264099.3881 0.0200
626960.5797 4273383.6655 0.0220
619021.5444 4237640.9807 0.0240
626986.9509 4273356.3994 0.0220
626951.8400 4273323.6095 0.0220
626977.0675 4273296.3630 0.0220
626936.3504 4245211.3994 0.0200
626944.3140 4273262.8358 0.0220
626971.8483 4273235.5485 0.0220
605141.7798 4235293.7100 0.0249
605140.3485 4235303.6049 0.0250
605138.9678 4236525.5066 0.0630
617805.6631 4234924.7257 0.0240
626960.0222 4259837.2381 0.0200
631471.0588 4273690.1178 0.0340
626928.7602 4269057.7297 0.0200
618760.7071 4236918.9940 0.0284
626927.0891 4273198.1156 0.0220
626927.2572 4269087.9454 0.0200
626925.9255 4269118.8997 0.0200
619023.2296 4237330.4614 0.0285
626896.6795 4259913.9224 0.0200
626933.6539 4273409.2055 0.0220
626879.7807 4264079.7758 0.0200
605139.0298 4235684.8243 0.0630
626900.9779 4273374.0601 0.0220
626926.8055 4273349.4460 0.0220
626891.5267 4273313.2259 0.0220
626916.2314 4273289.2786 0.0220
626878.8850 4273258.1393 0.0220
626905.4578 4273224.0575 0.0220
626860.7941 4269055.0197 0.0200
626860.1283 4269085.8918 0.0200
626838.0643 4245192.6764 0.0200
605146.8612 4236556.5955 0.0630
617908.5704 4235294.7909 0.0445
626860.5237 4273194.9528 0.0220
626882.0623 4273160.9272 0.0220
626859.0598 4269115.9197 0.0200
605149.7622 4235680.0194 0.0630
626844.9346 4273139.6908 0.0220
626866.7000 4273337.2324 0.0220
626835.9599 4273310.3237 0.0220
626860.0056 4273281.9832 0.0220
617359.9361 4233765.7464 0.0240
605149.5701 4235519.4903 0.0630
626822.3685 4273256.6181 0.0220
626839.5451 4273229.2018 0.0220
626833.3369 4259990.6068 0.0200
626804.2903 4273208.2264 0.0220
626825.7651 4273173.0188 0.0220
626776.9395 4260073.1666 0.0200
605160.1770 4240810.5195 0.0230
605152.3766 4236538.9922 0.0630
626793.0992 4269054.0496 0.0200
605154.7100 4235547.5776 0.0630
626793.0207 4269085.0916 0.0200
626792.9706 4269114.1466 0.0200
626784.0312 4264052.1107 0.0200
626788.5660 4273152.3899 0.0220
626806.6007 4273118.4133 0.0220
626804.4541 4273283.5821 0.0220
626771.0626 4273263.8104 0.0220
626788.2377 4273234.5347 0.0220
617391.3012 4234058.0778 0.0500
626747.8206 4273097.6424 0.0220
626740.6335 4245170.7051 0.0200
626753.1689 4273215.4557 0.0220
626769.3228 4273186.4313 0.0220
631420.9897 4273631.1152 0.0673
626725.9499 4269115.8693 0.0200
626724.1759 4269054.8630 0.0200
626724.8684 4269085.8562 0.0200
605160.1574 4235306.4543 0.0233
626725.1046 4273167.7279 0.0220
626738.4185 4273128.4812 0.0220
626737.8085 4273244.6938 0.0220
626688.2818 4264024.4456 0.0200
605158.5258 4236521.2267 0.0630
618583.3990 4238373.2136 0.0464
626705.8992 4273235.0741 0.0220
626715.0833 4273197.9957 0.0220
617576.9735 4234865.3381 0.0236
626667.5521 4260240.5617 0.0200
626720.5421 4260155.7263 0.0200
605161.5757 4235296.5827 0.0230
626682.1050 4273119.8823 0.0220
626686.0899 4273081.7154 0.0220
617513.4169 4234561.7804 0.0200
626643.1067 4245148.7419 0.0200
626676.0714 4273193.1238 0.0220
626678.8381 4273155.1659 0.0220
626662.1487 4269151.0130 0.0200
605165.3863 4236505.4759 0.0630
626657.1268 4269088.2982 0.0200
626659.0370 4269120.1439 0.0200
605165.0506 4236552.7790 0.0630
626655.8520 4269056.2329 0.0200
626673.5740 4273228.6653 0.0220
626638.0259 4273230.6012 0.0220
626635.5341 4273190.7402 0.0220
626631.8713 4273159.7433 0.0220
626626.6520 4273116.0451 0.0220
605167.1605 4236416.0223 0.0630
626623.7416 4273085.5484 0.0220
618755.4063 4237825.1914 0.0500
626599.8757 4269191.0787 0.0200
626595.3118 4263986.6522 0.0200
626592.2045 4269124.8680 0.0200
626595.0723 4269158.9386 0.0200
626588.9770 4269058.0284 0.0200
626590.1747 4269091.8247 0.0200
626601.9763 4273233.4374 0.0220
626562.3697 4260410.7045 0.0200
626614.5621 4260325.3971 0.0200
605175.7671 4237023.0160 0.0630
618709.2478 4237927.6888 0.0321
605171.4895 4236534.8171 0.0630
626585.5083 4273167.3991 0.0220
626594.0565 4273199.8186 0.0220
631420.5562 4273689.7460 0.0340
605172.1877 4235523.8677 0.0630
618884.8656 4236488.9350 0.0220
618466.4590 4236024.7664 0.0220
626573.8562 4273130.1272 0.0220
626562.6533 4273093.6160 0.0220
626546.8267 4245122.4399 0.0200
626555.9250 4273243.6612 0.0220
626548.3235 4273211.5187 0.0220
605178.3028 4235548.8741 0.0630
626527.9197 4269165.0765 0.0200
626530.9711 4269200.9950 0.0200
618814.4083 4237022.9310 0.0240
626502.4225 4263948.8589 0.0200
626523.0595 4269094.7765 0.0200
626524.9354 4269129.9170 0.0200
626539.2219 4273182.1378 0.0220
626527.2854 4273144.9358 0.0220
605179.9427 4235309.3057 0.0230
605178.5429 4235319.2228 0.0447
626522.4162 4269058.7733 0.0200
605178.5241 4236516.9190 0.0630
626509.8223 4273254.4974 0.0220
626516.8079 4273105.3018 0.0220
605181.3811 4235299.4208 0.0244
626497.0000 4269265.0000 0.0200
605177.3827 4236429.7598 0.0630
626501.0068 4273225.6254 0.0220
626492.4583 4273196.7693 0.0220
626457.7231 4260581.3272 0.0200
626510.1774 4260496.0119 0.0200
626450.7858 4245096.1928 0.0200
605185.7283 4236479.2601 0.0630
626482.2991 4273156.8176 0.0220
626471.7731 4273116.9427 0.0220
605183.3672 4236548.0312 0.0630
605181.6192 4236498.3849 0.0630
605182.7606 4236413.6108 0.0630
626462.0911 4269207.0615 0.0200
605188.2073 4240790.7738 0.0230
626457.7648 4269133.2841 0.0200
626459.0773 4269170.1253 0.0200
618702.0567 4236842.1702 0.0500
618856.1301 4237221.8090 0.0262
626456.2000 4269059.9449 0.0200
626456.8442 4269096.1997 0.0200
626473.0496 4273272.3441 0.0220
626456.9355 4273239.3651 0.0220
631321.4618 4273868.0881 0.0403
626429.0000 4269268.0000 0.0200
626447.2785 4273211.4152 0.0220
626433.1054 4273170.1005 0.0220
605194.2185 4236460.1390 0.0630
626436.4725 4273290.3438 0.0220
626414.9806 4263901.5870 0.0200
605191.1652 4236530.7180 0.0630
626419.8323 4273138.9979 0.0220
626419.6480 4273258.9148 0.0220
626402.7369 4273227.6539 0.0220
626392.2282 4269211.9937 0.0200
626391.0963 4269173.0294 0.0200
626396.2755 4273311.8223 0.0220
626389.5968 4269097.0246 0.0200
626389.9278 4269134.9935 0.0200
605194.1307 4235531.4837 0.0630
626390.1442 4269059.1150 0.0200
605192.1239 4236426.5373 0.0630
605191.9932 4236441.5959 0.0630
605195.8665 4237016.7832 0.0630
617525.5979 4234745.4597 0.0500
605198.3448 4235321.9977 0.0270
605196.8981 4235332.0187 0.0630
626353.3804 4260752.3212 0.0200
626405.2688 4260666.6425 0.0200
605196.8930 4235550.9887 0.0630
626379.7496 4273280.4499 0.0220
626385.1309 4273194.5369 0.0220
626367.9931 4273161.1660 0.0220
605199.6721 4236510.1572 0.0630
626359.0000 4269270.0000 0.0200
605201.1896 4235302.2558 0.0261
605199.7785 4235312.1543 0.0230
605198.9305 4236413.0319 0.0630
631371.0029 4273808.1911 0.0340
631320.5655 4273808.3397 0.0340
626355.1078 4245064.0512 0.0200
626327.5133 4263854.6665 0.0200
605197.9183 4236492.1776 0.0630
626362.3110 4273255.2689 0.0220
626338.0584 4273219.1392 0.0220
605207.1954 4236477.5799 0.0630
617949.5846 4235091.9220 0.0240
626356.7215 4273333.1599 0.0220
626339.0053 4273308.1134 0.0220
631320.3935 4273749.1905 0.0340
631370.6590 4273689.8926 0.0340
631319.8625 4273631.0537 0.0339
631320.2216 4273690.0413 0.0340
618974.8279 4237334.7105 0.0500
618729.9380 4236706.9065 0.0500
605206.9762 4236396.9679 0.0630
626327.0000 4269321.0000 0.0200
626324.0527 4269213.8992 0.0200
605216.3480 4240770.9422 0.0230
626322.9483 4269135.9212 0.0200
626323.1673 4269174.8156 0.0200
605206.8175 4236430.1259 0.0630
626323.0396 4269057.9648 0.0200
626322.7912 4269097.0172 0.0200
626322.1802 4273282.4381 0.0220
626321.7321 4273362.9158 0.0220
605211.6280 4236446.8244 0.0630
626320.5238 4273185.3842 0.0220
631222.0357 4273869.5837 0.0451
626293.0000 4269270.0000 0.0200
605216.8502 4235334.6878 0.0540
618876.2656 4237123.1876 0.0500
626259.0190 4245031.7941 0.0200
631270.8524 4273809.0875 0.0340
631221.1394 4273809.8354 0.0340
605214.9169 4236494.3345 0.0630
605213.4696 4235541.9619 0.0630
626299.2551 4273335.4347 0.0220
626281.2431 4273310.5273 0.0220
605215.8669 4236414.5470 0.0630
626297.5054 4273246.2320 0.0220
626273.3779 4273209.5160 0.0220
626250.2482 4260924.0497 0.0200
626301.4920 4260837.9998 0.0200
605217.2022 4236463.4946 0.0630
605216.0688 4237010.8029 0.0630
605219.6170 4235314.9517 0.0230
605218.1984 4235324.8859 0.0260
626266.0000 4269332.0000 0.0200
617830.2764 4234991.0393 0.0500
605221.0168 4235305.0564 0.0239
626286.9987 4273391.4412 0.0220
626264.3318 4273364.3881 0.0220
605223.8853 4236431.9368 0.0630
631220.0559 4273750.2486 0.0340
631269.5970 4273690.3516 0.0340
626255.1105 4269215.1347 0.0200
626256.8229 4269057.0070 0.0200
605225.1797 4236399.2541 0.0630
605224.9769 4236480.0978 0.0630
626256.7401 4273273.2041 0.0220
626254.9617 4269175.1376 0.0200
626255.9129 4269096.0107 0.0200
626255.0603 4269135.9734 0.0200
631218.6134 4273631.6743 0.0304
618766.1127 4237085.7577 0.0500
631218.9725 4273690.6619 0.0340
631169.0723 4273691.5713 0.0340
631122.1731 4273629.4069 0.0326
631118.6477 4273692.4701 0.0340
631118.1812 4273867.7723 0.0393
626240.0000 4269389.0000 0.0200
605231.8261 4235556.5521 0.0630
631171.2392 4273810.7448 0.0340
631119.7298 4273752.0558 0.0340
605230.1493 4236449.6911 0.0630
626248.6102 4263795.2124 0.0200
605230.9255 4237024.6153 0.0630
605227.2788 4237041.5089 0.0630
626226.0000 4269275.0000 0.0200
605231.5250 4236373.1856 0.0630
605234.0597 4236416.1430 0.0630
626242.9779 4273337.3038 0.0220
626216.1183 4273309.0179 0.0220
631120.8119 4273811.6412 0.0340
605231.1187 4236352.7750 0.0630
626232.0107 4273244.3733 0.0220
605238.1599 4235327.6127 0.0270
605235.1350 4236466.6464 0.0630
619136.4110 4237491.9405 0.0240
605235.0593 4236386.1613 0.0630
626196.0000 4269342.0000 0.0200
605237.1293 4237005.4161 0.0630
618627.1908 4237993.3682 0.0240
626171.7160 4263733.4963 0.0200
631072.8307 4273689.8913 0.0340
626170.9601 4273406.0074 0.0220
631030.5418 4273624.2514 0.0325
605240.8580 4235307.7796 0.0257
605239.5023 4235317.7077 0.0230
605237.3467 4236362.3097 0.0630
626190.5674 4273278.5417 0.0220
626187.1135 4269215.8580 0.0200
626189.7544 4269054.0432 0.0200
626188.1520 4269094.9568 0.0200
626187.7357 4269135.0343 0.0200
626187.1360 4269174.9613 0.0200
626163.0000 4269428.0000 0.0200
605243.1592 4235578.5688 0.0630
631027.0138 4273687.3124 0.0340
626148.1656 4261096.3904 0.0200
626199.0043 4261010.0996 0.0200
605244.3718 4240751.7846 0.0230
617586.3447 4234884.2966 0.0240
626170.3200 4244993.7891 0.0200
605244.0845 4236984.8238 0.0630
605242.4274 4236400.7287 0.0630
605244.9454 4236434.5816 0.0630
626156.0000 4269279.0000 0.0200
605242.6732 4237038.2716 0.0630
605243.8108 4237082.9153 0.0230
605235.0838 4237100.7588 0.0230
626099.5856 4273476.6041 0.0200
605243.8766 4236374.2555 0.0630
626123.0000 4269349.0000 0.0200
626122.8835 4269050.9149 0.0200
626121.2127 4269092.9211 0.0200
626119.6558 4269133.8290 0.0200
617709.6957 4234919.3577 0.0240
617331.9296 4234008.4215 0.0240
626118.8807 4269214.9979 0.0200
626119.3119 4269174.8560 0.0200
626103.0000 4269491.0000 0.0200
605247.6083 4236454.7087 0.0630
605255.6231 4236969.4703 0.0630
618123.7487 4235799.8683 0.0500
605251.1884 4237020.3766 0.0630
605254.6039 4235598.8769 0.0630
631009.8983 4273862.6539 0.0389
631066.6718 4273809.0833 0.0340
605251.7846 4236415.5635 0.0630
626079.6801 4244956.8404 0.0200
605251.9303 4237042.7202 0.0262
605243.3186 4237060.5985 0.0230
605250.2713 4236387.2677 0.0630
605252.5102 4237065.0583 0.0230
626085.0000 4269415.0000 0.0200
605250.4302 4236361.9407 0.0630
626087.0000 4269281.0000 0.0200
605249.5872 4236469.6711 0.0630
618129.0069 4235766.5435 0.0240
617910.9628 4235554.5819 0.0293
605253.3238 4235560.8741 0.0280
618923.7216 4236528.9123 0.0500
631019.7727 4273746.9188 0.0340
618916.7842 4237634.6347 0.0500
618718.1451 4238814.7813 0.0500
626104.7886 4263662.9814 0.0200
619015.9434 4237667.0372 0.0500
605259.4475 4235320.3092 0.0230
626046.2287 4261268.6572 0.0200
626097.3270 4261182.6813 0.0200
605259.6547 4237002.4714 0.0630
626044.1586 4263587.2405 0.0200
626055.8428 4269048.1049 0.0200
626054.1195 4269090.1975 0.0200
605257.9595 4236400.5322 0.0630
626052.0000 4269346.0000 0.0200
605257.7973 4236374.4246 0.0630
626033.0000 4269549.0000 0.0200
626052.0586 4269215.1099 0.0200
605260.7118 4235310.3781 0.0236
626052.9158 4269132.1639 0.0200
626051.9912 4269174.1732 0.0200
617888.7793 4235255.4973 0.0500
631012.5317 4273806.5255 0.0340
618862.4882 4237863.8039 0.0500
626018.0000 4269460.0000 0.0200
626019.0000 4269281.0000 0.0200
626014.0000 4269402.0000 0.0200
626038.0247 4273554.1152 0.0200
625976.4041 4273631.7719 0.0200
605263.9884 4236428.2040 0.0630
625987.8650 4269044.9279 0.0200
625986.0137 4269087.9162 0.0200
625985.0058 4269130.9695 0.0200
605264.9425 4236950.6189 0.0630
625995.8968 4244907.9691 0.0200
625984.9101 4269173.9588 0.0200
625985.2131 4269215.9789 0.0200
618252.0035 4235930.2974 0.0500
605271.9470 4240732.0155 0.0230
605268.5942 4235577.4334 0.0374
625983.0000 4269348.0000 0.0200
625959.0000 4269608.0000 0.0200
625943.4039 4261440.2339 0.0200
625995.1304 4261354.6331 0.0200
605268.0564 4236984.5573 0.0342
605262.8664 4236445.7620 0.0630
605264.2785 4236387.9099 0.0630
625944.0000 4269517.0000 0.0200
605265.3546 4236360.7801 0.0630
625993.3930 4263501.2829 0.0200
625941.5864 4263416.2074 0.0200
625934.0000 4269435.0000 0.0200
605267.6948 4236412.5066 0.0630
625954.0000 4269282.0000 0.0200
618585.1445 4236136.7645 0.0500
605269.0337 4237006.9161 0.0230
605260.5064 4237024.8264 0.0272
605269.8116 4237029.2998 0.0230
605261.1789 4237047.1864 0.0230
605272.8410 4236931.0004 0.0630
617845.7249 4234974.4529 0.0500
618478.7558 4238682.8652 0.0240
625914.4589 4244850.1986 0.0200
630977.4838 4273681.2789 0.0340
618527.8716 4238773.6900 0.0240
605271.3486 4236399.2012 0.0630
605274.8112 4236892.9356 0.0630
605272.5978 4236374.2397 0.0630
619064.5317 4237431.5415 0.0500
625926.0000 4269344.0000 0.0200
625921.1428 4269040.8848 0.0200
625918.8847 4269085.7914 0.0200
619048.4026 4237640.7770 0.0500
618031.2821 4235764.0944 0.0240
605276.3681 4236966.6374 0.0230
625918.0287 4269217.8972 0.0200
618516.3380 4238502.3966 0.0500
618909.6007 4237822.0873 0.0500
625917.7793 4269129.9703 0.0200
625917.1569 4269173.9738 0.0200
625881.0000 4269667.0000 0.0200
625867.0000 4269574.0000 0.0200
625890.0000 4269288.0000 0.0200
625858.1854 4273793.1489 0.0200
625917.2729 4273712.4514 0.0200
605280.5657 4235312.7657 0.0230
605279.4173 4235322.7063 0.0286
625900.5374 4263324.8961 0.0200
625859.4884 4263233.5848 0.0200
625853.0000 4269478.0000 0.0200
605279.1817 4236422.6525 0.0630
625870.0000 4269369.0000 0.0200
625841.4036 4261612.0070 0.0200
625891.6774 4261525.8347 0.0200
605276.8423 4236386.9745 0.0630
625854.1705 4269037.0533 0.0200
605281.8781 4236912.4409 0.0630
625850.8948 4269220.0180 0.0200
625852.0446 4269082.9883 0.0200
625850.6090 4269128.7898 0.0200
605281.6914 4236409.1066 0.0630
605277.8609 4236437.9753 0.0630
605283.3093 4236359.4827 0.0630
625850.2066 4269173.8850 0.0200
605284.5190 4236948.7414 0.0230
617385.1887 4234000.6536 0.0500
630937.2098 4273614.0527 0.0323
625823.0000 4269294.0000 0.0200
625838.9324 4244789.3930 0.0200
625787.0000 4269724.0000 0.0200
625803.0000 4269630.0000 0.0200
625824.7879 4263139.6121 0.0200
625790.0874 4263045.6394 0.0200
605285.8838 4236971.0529 0.0230
605277.5006 4236988.9913 0.0230
605283.0229 4236397.2200 0.0630
625792.0000 4269372.0000 0.0200
605286.9351 4236993.4459 0.0230
605278.4016 4237011.3883 0.0230
625762.0000 4269545.0000 0.0200
605289.8700 4236864.3961 0.0630
625765.6828 4244720.3832 0.0200
625787.9084 4269032.9579 0.0200
625785.2710 4269080.0687 0.0200
625783.9529 4269222.0279 0.0200
625783.5855 4269127.0866 0.0200
625783.0768 4269174.1123 0.0200
605288.7466 4236340.6197 0.0630
618699.1996 4236771.9168 0.0500
605287.9432 4236376.1909 0.0630
617927.8639 4235412.7537 0.0240
605286.2088 4236882.5365 0.0630
625745.6630 4273957.8243 0.0200
625801.9300 4273875.4904 0.0200
605292.5694 4236930.6222 0.0626
619068.5170 4237547.1003 0.0300
625751.0000 4269439.0000 0.0200
625749.8724 4261788.5760 0.0200
625791.1299 4261698.1793 0.0200
618738.1430 4236638.6319 0.0500
619119.2347 4237533.3378 0.0240
605291.3026 4236899.3343 0.0630
605292.5767 4235585.4691 0.0738
618877.3019 4236507.3714 0.0220
625749.0000 4269292.0000 0.0200
625760.5611 4262949.9710 0.0200
625731.0348 4262854.3026 0.0200
625718.0000 4269811.0000 0.0200
605294.9203 4236418.2811 0.0630
605291.7940 4236388.9143 0.0630
605301.2206 4236847.1920 0.0630
625718.0000 4269640.0000 0.0200
605294.0933 4236403.1126 0.0630
625722.7439 4269028.1640 0.0200
605289.4775 4236430.8524 0.0630
605292.1788 4236443.7052 0.0630
625719.2195 4269076.2541 0.0200
625716.7506 4269125.0992 0.0200
617373.4158 4234116.0774 0.0240
625709.0000 4269356.0000 0.0200
618858.4467 4237761.7432 0.0283
605305.0652 4236818.5304 0.0630
605299.4002 4235324.8665 0.0230
625715.0425 4269172.9948 0.0200
625714.0509 4269223.0455 0.0200
605299.4160 4240711.9368 0.0230
630927.4170 4273675.1858 0.0340
625684.0000 4269490.0000 0.0200
625707.2852 4262756.9982 0.0200
625683.5355 4262659.6939 0.0200
618695.7744 4237841.0677 0.0500
605300.4367 4235314.9207 0.0230
605300.5640 4236912.5076 0.0630
625678.0000 4269726.0000 0.0200
625683.2338 4261972.3753 0.0200
625708.6149 4261878.9727 0.0200
625697.8443 4244646.3992 0.0200
625644.0000 4269885.0000 0.0200
605302.3510 4236935.0242 0.0230
605294.1622 4236953.0522 0.0230
605300.0718 4236366.2549 0.0630
605297.7843 4236352.1503 0.0630
625657.0000 4269566.0000 0.0200
605298.4836 4236888.4862 0.0630
605298.5237 4236878.2451 0.0630
625636.8938 4274125.3623 0.0200
625691.2828 4274041.5715 0.0200
617677.8081 4234870.2475 0.0500
605303.7513 4236957.4626 0.0230
605295.4000 4236975.4648 0.0230
625666.7955 4262560.7746 0.0200
625650.0556 4262461.8552 0.0200
625657.7874 4269023.1808 0.0200
625653.8605 4269071.3614 0.0200
618355.9901 4235974.2456 0.0220
625628.5616 4244567.0852 0.0200
605302.3609 4236432.3459 0.0630
605303.5728 4236381.1681 0.0630
625649.2340 4269120.4259 0.0200
605310.1241 4236679.0030 0.0630
625647.2283 4262164.3627 0.0200
625657.8528 4262065.7779 0.0200
605306.0912 4236409.0873 0.0630
605307.0707 4236870.6260 0.0630
625637.0000 4269796.0000 0.0200
625643.3297 4262362.4014 0.0200
625636.6038 4262262.9476 0.0200
605307.4361 4236896.0006 0.0630
625621.0000 4269652.0000 0.0200
618237.1214 4235860.6242 0.0220
618010.1534 4235763.2053 0.0240
625613.0000 4269986.0000 0.0200
605305.9030 4236444.5780 0.0630
605306.5085 4236394.8635 0.0630
618973.0354 4237677.6986 0.0240
618449.5175 4236054.2450 0.0458
617601.7953 4234593.2275 0.0500
617491.0753 4234223.9910 0.0240
618302.0140 4235832.5574 0.0500
605310.5642 4236916.9147 0.0361
605309.9808 4236654.0196 0.0630
605311.6408 4236421.6952 0.0630
625586.0000 4269735.0000 0.0200
625593.7887 4269017.7634 0.0200
605311.9860 4236355.9066 0.0630
605310.0322 4236884.0058 0.0630
605317.0744 4236796.2251 0.0630
605311.8869 4235571.1468 0.0630
605312.8357 4235591.3576 0.0614
630904.1867 4273852.2951 0.0452
625583.3439 4269113.8161 0.0200
625588.7838 4269064.7128 0.0200
617333.3256 4233883.2614 0.0203
605317.5715 4236618.2048 0.0630
618794.7648 4236278.4893 0.0220
605315.8709 4236822.5291 0.0555
605313.0830 4236846.0035 0.0230
605326.2010 4240690.5049 0.0230
605317.3308 4236899.6636 0.0630
605316.0795 4236372.0201 0.0630
625561.0000 4269821.0000 0.0200
625533.7997 4274296.3672 0.0200
625585.3468 4274210.8648 0.0200
605319.3626 4235326.8798 0.0230
605320.3456 4235316.9282 0.0230
605316.2342 4236435.7730 0.0630
618634.4168 4238054.4399 0.0240
625577.9950 4244487.6531 0.0200
625541.0000 4269915.0000 0.0200
605320.2553 4236921.3913 0.0230
605312.0248 4236939.3651 0.0230
605323.0083 4236598.8074 0.0630
605319.3807 4236388.7567 0.0630
605321.5038 4236407.7810 0.0630
625529.8400 4269010.8802 0.0200
625523.9997 4269056.7368 0.0200
605317.1014 4236867.1780 0.0263
605319.3207 4236883.8564 0.0485
625499.0280 4244395.8292 0.0200
625519.0000 4270013.0000 0.0200
625500.0000 4270112.0000 0.0200
625516.8534 4269104.8621 0.0200
625485.0000 4270206.0000 0.0200
625463.0000 4270284.0000 0.0200
617943.5278 4235312.4320 0.0240
605325.9879 4236802.3359 0.0563
605327.1497 4236577.5637 0.0630
625467.2250 4269001.0571 0.0200
617409.1447 4234168.3457 0.0240
625438.5255 4274471.8459 0.0200
625486.1626 4274384.1065 0.0200
618837.7767 4236667.9553 0.0501
625450.8692 4269093.7006 0.0200
625458.9962 4269046.8731 0.0200
605327.6883 4236639.0203 0.0630
617943.8743 4235532.4076 0.0240
630962.9991 4273800.4894 0.0340
625419.0000 4270228.0000 0.0200
605329.8337 4236778.8817 0.0630
625404.2899 4268989.2531 0.0200
625394.9911 4269034.2126 0.0200
625391.6638 4244268.2109 0.0200
619064.2899 4237626.7288 0.0500
625384.0000 4270282.0000 0.0200
625384.9731 4269081.1736 0.0200
605323.9502 4236844.9540 0.0230
605327.3655 4236864.4212 0.0230
605328.1549 4236426.5949 0.0630
617892.8796 4235372.9796 0.0500
625356.5229 4274653.5218 0.0200
625397.5242 4274562.6838 0.0200
617502.1791 4234156.8409 0.0500
605328.7488 4236361.0651 0.0630
625340.8615 4268974.7840 0.0200
605328.0502 4236555.2546 0.0630
605328.0691 4236461.7034 0.0630
605328.7693 4236665.8216 0.0630
625314.4461 4244172.3791 0.0200
625319.8862 4269067.1897 0.0200
625330.0496 4269020.1640 0.0200
605330.2972 4236883.6493 0.0230
605327.3362 4236902.7704 0.0230
605332.2018 4236690.0293 0.0630
605330.0527 4235579.7542 0.0630
605329.0465 4236444.6451 0.0630
605336.2703 4236615.7976 0.0630
605326.2809 4236826.1990 0.0230
605335.1295 4236808.4552 0.0230
605336.3467 4236713.7512 0.0630
605332.9205 4236378.8884 0.0630
618668.0423 4238878.8703 0.0300
625288.8200 4274840.2208 0.0200
625322.6714 4274746.8713 0.0200
630920.1743 4273734.7907 0.0340
605338.3535 4236785.6225 0.0263
605338.9462 4236738.1491 0.0630
625277.5555 4268958.9515 0.0200
625265.9468 4269005.0068 0.0200
605339.3262 4235328.8070 0.0230
605336.2781 4236397.4207 0.0630
625237.3463 4275032.5929 0.0200
625263.0832 4274936.4068 0.0200
625254.0357 4269051.9954 0.0200
625252.7034 4244099.7149 0.0200
605340.2709 4235318.8517 0.0230
605342.6092 4236591.9348 0.0630
625213.8242 4268941.8787 0.0200
625207.8357 4275229.0058 0.0200
625222.5910 4275130.7994 0.0200
605340.3423 4236503.2231 0.0630
618743.2520 4237933.7754 0.0500
625193.7915 4244029.0912 0.0200
605342.5200 4236487.1071 0.0630
625192.5361 4275426.6525 0.0200
625200.1859 4275327.8292 0.0200
625188.0871 4269034.9197 0.0200
625200.9240 4268987.8125 0.0200
605343.2635 4236521.3205 0.0630
605340.0039 4236416.6510 0.0630
625183.4221 4275625.9283 0.0200
625187.9791 4275526.2904 0.0200
618808.6735 4236859.9188 0.0500
625174.7435 4275824.8509 0.0200
625179.0828 4275725.3896 0.0200
625161.1637 4276024.0702 0.0200
625167.9536 4275924.4606 0.0200
625145.4743 4276223.0913 0.0239
625153.3190 4276123.5808 0.0200
625149.9069 4268923.1755 0.0200
625136.0218 4268969.0624 0.0200
618825.6764 4236592.9059 0.0233
625122.0050 4269016.9255 0.0200
618652.8076 4238431.8252 0.0312
605343.0824 4236762.8914 0.0630
625127.5251 4243945.9087 0.0200
625085.1195 4268902.8345 0.0200
618451.1460 4238559.5538 0.0500
625064.4082 4243873.2554 0.0200
617926.9389 4235532.5573 0.0240
615714.7673 4232573.3477 0.0230
605341.8734 4236470.7133 0.0630
605343.1751 4236436.1286 0.0630
605343.2860 4236454.2981 0.0630
605349.7170 4236632.9476 0.0630
605344.5128 4236543.1876 0.0630
605345.4016 4236567.4170 0.0630
630912.9317 4273794.3957 0.0340
618880.5709 4237263.4966 0.0436
617547.2069 4234220.7797 0.0500
605347.0437 4236367.3623 0.0630
625055.1692 4268996.6147 0.0200
625070.3644 4268948.7898 0.0200
618631.0991 4238093.4440 0.0240
618728.4814 4236659.7406 0.0500
605344.7716 4236654.3683 0.0630
605347.8677 4236679.1930 0.0630
605351.3444 4236770.0624 0.0250
605347.6593 4235569.3230 0.0630
605345.4172 4235586.6151 0.0276
605354.2401 4236724.0455 0.0630
605351.1296 4240666.0591 0.0230
605350.1292 4236386.5418 0.0630
605351.1528 4236701.7108 0.0630
605356.8768 4236609.5446 0.0630
605346.8827 4236792.4974 0.0230
605357.1994 4236503.8797 0.0630
625021.0867 4268881.1121 0.0200
625005.0212 4268927.2851 0.0200
605354.4210 4236405.6984 0.0630
624988.7436 4268974.5334 0.0200
624995.4123 4243797.4008 0.0200
605359.6971 4236777.3353 0.0230
624957.1632 4268858.9462 0.0200
624942.4452 4243736.1471 0.0200
618501.8207 4238605.2349 0.0240
617990.7964 4235620.1054 0.0500
605359.2913 4235330.6689 0.0230
605360.2069 4235320.7109 0.0230
605356.9616 4236747.3889 0.0630
624923.0577 4268950.8931 0.0200
624940.7630 4268903.8756 0.0200
605356.9539 4236426.0011 0.0630
624373.6171 4241633.3570 0.0200
618735.7199 4236752.7806 0.0275
630879.9003 4273667.5645 0.0340
624894.7922 4268835.0131 0.0200
624876.8977 4268879.0773 0.0200
624888.1589 4243671.9936 0.0200
605356.9998 4236481.4668 0.0630
605356.4649 4236464.7810 0.0630
624838.9668 4243607.6204 0.0200
624857.8752 4268925.0832 0.0200
618974.4136 4237613.1988 0.0468
624832.4586 4268809.7860 0.0200
624847.5615 4240493.7370 0.0200
624821.8767 4240549.7556 0.0200
605360.7711 4236529.3219 0.0630
605361.8107 4236447.8215 0.0630
605361.8961 4235582.3466 0.0276
624794.8785 4268897.6761 0.0200
624814.3494 4268853.1163 0.0200
605365.0904 4236754.9956 0.0274
624803.3518 4240586.8676 0.0200
624782.1634 4240629.4178 0.0200
617355.0348 4233869.3762 0.0240
624794.2640 4243543.9464 0.0200
605365.8048 4236582.4005 0.0630
605363.0657 4236553.8225 0.0630
618745.6279 4236926.7928 0.0500
618797.3261 4236252.3279 0.0220
618844.5537 4236408.6311 0.0408
605372.9410 4240638.1452 0.0230
618514.4918 4238616.5737 0.0240
605363.0379 4236651.7901 0.0630
605363.7592 4236670.9482 0.0630
624754.2571 4243481.0822 0.0200
619084.9854 4237439.4515 0.0500
605368.0298 4236627.9306 0.0630
624772.7170 4268783.7856 0.0200
624753.2009 4268825.9988 0.0200
605363.2014 4236375.0174 0.0630
617308.3720 4233959.5632 0.0230
605368.7332 4235561.1018 0.0630
605366.6927 4236690.6949 0.0630
617525.3313 4234521.4889 0.0240
605364.3623 4235539.1012 0.0630
617861.8627 4234959.2633 0.0240
624763.1702 4240662.0762 0.0200
624737.6497 4240706.1739 0.0200
618969.7729 4237311.2534 0.0300
605371.6420 4236392.9924 0.0630
624747.2395 4240612.6691 0.0200
624731.3573 4240639.8536 0.0200
624732.8511 4268869.0973 0.0200
605369.6709 4236711.0621 0.0630
624714.0253 4268755.9573 0.0200
605372.2056 4236469.0507 0.0630
624718.8245 4243419.1461 0.0200
624686.3732 4243358.8501 0.0200
630033.7180 4273358.1769 0.0200
630056.5562 4273372.9071 0.0340
624699.6258 4240682.3970 0.0200
605372.2860 4236732.1998 0.0630
605370.9702 4236414.6270 0.0630
624672.0939 4268839.1612 0.0200
624693.6214 4268796.9212 0.0200
605372.8624 4236434.4616 0.0630
630842.1772 4273598.8108 0.0321
617388.0428 4234129.7344 0.0240
605373.6374 4236490.8902 0.0630
605378.7607 4236606.5123 0.0630
624689.0876 4240617.4899 0.0200
605379.9090 4236740.6203 0.0457
605378.3669 4235342.4390 0.0317
605379.2585 4235332.4788 0.0230
605376.0806 4236514.2787 0.0630
624656.8407 4268727.0708 0.0200
624635.8578 4268766.8681 0.0200
617987.3249 4235191.1029 0.0500
624658.1862 4243300.3563 0.0200
624625.1386 4243234.9029 0.0200
605373.1361 4236762.7035 0.0230
617534.1548 4234600.2191 0.0240
630086.4257 4273465.2089 0.0340
605380.1502 4235322.5187 0.0230
624601.6305 4268696.6440 0.0200
605378.8628 4236538.1019 0.0630
605380.2720 4235579.8007 0.0471
605381.9666 4236372.1246 0.0630
605382.7223 4236453.8692 0.0630
624613.2917 4268807.9096 0.0200
630023.5100 4273569.5340 0.0318
624574.6617 4243140.0656 0.0200
624595.2729 4243180.4886 0.0200
624556.0196 4268774.9199 0.0200
624579.2932 4268735.1390 0.0200
605384.9064 4235542.7705 0.0630
617298.1800 4234003.6926 0.0240
617599.8800 4234573.7027 0.0500
605379.5278 4236642.6578 0.0630
605380.3413 4236660.5072 0.0630
605382.9728 4236562.1231 0.0630
624540.9803 4243067.5242 0.0200
624555.5502 4243096.2212 0.0200
605382.3298 4236679.4609 0.0630
624547.7515 4268664.2155 0.0200
624524.1486 4268702.1081 0.0200
605387.3978 4236748.9158 0.0230
624510.9044 4243115.2188 0.0200
630092.8742 4273540.1783 0.0340
624524.7138 4243033.1142 0.0200
618608.8476 4238232.2729 0.0240
624495.1198 4268629.7498 0.0200
605385.2000 4236699.1333 0.0630
617915.5753 4235093.7613 0.0240
618517.7533 4236055.8521 0.0220
630832.3837 4273659.9432 0.0340
605391.0805 4236585.5192 0.0630
618823.7748 4237850.2589 0.0240
605389.4512 4236626.4158 0.0630
624500.0263 4268740.1244 0.0200
624499.3169 4243090.0930 0.0200
618673.9107 4236216.3101 0.0500
624444.1524 4268704.1490 0.0200
624469.9778 4268666.0976 0.0200
605384.5190 4236423.2427 0.0630
605387.3630 4236406.7395 0.0630
605388.4735 4236718.5233 0.0630
605394.8427 4235565.4752 0.0694
605389.6508 4236476.2890 0.0630
618627.3130 4236143.8058 0.0249
630053.3779 4273517.5226 0.0340
629964.3920 4273460.5567 0.0200
617679.9408 4234965.7190 0.0479
617995.3202 4235390.9950 0.0500
605393.3499 4236437.9300 0.0630
605397.9469 4235523.3316 0.0630
629957.1231 4273529.5852 0.0312
605395.5061 4236727.3043 0.0573
605393.1747 4236388.6586 0.0630
624443.7516 4268592.9770 0.0200
624417.2859 4268628.9276 0.0200
624392.9760 4268554.0499 0.0200
605392.4793 4236500.0921 0.0630
630017.0745 4273494.5614 0.0340
624390.0708 4268666.8934 0.0200
618667.4577 4238349.6540 0.0500
630023.5893 4273425.4992 0.0340
629990.4579 4273477.6202 0.0340
605397.4873 4235354.1684 0.0230
617493.0258 4234382.1866 0.0240
605394.7537 4236523.3695 0.0630
605398.3578 4235344.2063 0.0230
605392.7918 4240610.1447 0.0230
624336.8240 4268626.9851 0.0200
624365.1369 4268590.3274 0.0200
605397.7332 4236647.2268 0.0630
618676.0673 4238861.1335 0.0240
605400.0990 4235324.2823 0.0270
605399.2284 4235334.2443 0.0230
605401.2892 4236607.3196 0.0630
605396.2217 4236545.7822 0.0630
624342.7605 4268513.7700 0.0200
624313.1818 4268549.2643 0.0200
634750.7952 4272601.0885 0.0819
634743.5702 4272500.9032 0.0332
624293.0991 4268470.9528 0.0200
630801.0466 4273836.6960 0.0395
605396.6236 4236669.0149 0.0630
619103.6484 4237365.7646 0.0240
624283.9244 4268586.0605 0.0200
605402.8990 4236371.3949 0.0630
605400.2249 4236419.7485 0.0630
624231.1545 4268542.9742 0.0200
624262.1552 4268506.7913 0.0200
624243.2604 4268427.1978 0.0200
624211.9676 4268461.9358 0.0200
605400.1962 4236687.3400 0.0630
605406.4465 4236458.4310 0.0630
605403.7157 4236566.9064 0.0630
618776.8505 4236992.5685 0.0326
617952.2239 4235784.6278 0.0500
624193.9972 4268381.9305 0.0200
605404.1146 4236706.0473 0.0630
630861.3619 4273786.5964 0.0340
605411.9777 4240582.1404 0.0230
605404.4996 4236402.6167 0.0630
624179.0831 4268498.9601 0.0200
605410.7100 4235546.1976 0.0446
605402.5618 4236736.1010 0.0230
624128.1200 4268452.1557 0.0200
624161.9168 4268416.1290 0.0200
624145.8448 4268334.6749 0.0200
624112.0718 4268368.9343 0.0200
605411.1488 4236714.9054 0.0630
617507.5929 4234260.4191 0.0240
605410.0595 4236627.5411 0.0630
617910.8789 4235413.0920 0.0325
624098.7709 4268286.9795 0.0200
605409.5146 4236485.7565 0.0630
624077.9863 4268404.1551 0.0200
605414.7166 4236587.9997 0.0630
617494.6945 4234401.8281 0.0240
605411.4002 4236385.4977 0.0630
624029.1040 4268354.8817 0.0200
624064.0217 4268321.0182 0.0200
605414.8519 4236356.7850 0.0630
618031.9173 4235747.4050 0.0240
617940.5075 4235611.8133 0.0240
617981.4714 4235051.6670 0.0500
605413.1885 4236434.2183 0.0630
605411.5967 4236509.8109 0.0630
624052.1888 4268238.3034 0.0200
624016.9065 4268270.8642 0.0200
617398.4703 4233902.8957 0.0240
624007.1573 4268188.9354 0.0200
605413.1570 4236532.0607 0.0630
605418.1228 4236723.7645 0.0230
605410.1777 4236660.4772 0.0630
605413.9182 4236676.1895 0.0630
605417.7716 4235571.1828 0.0630
630821.0879 4273719.3702 0.0340
605417.4998 4235355.8968 0.0230
605418.3505 4235345.9331 0.0230
605414.4405 4236551.0595 0.0630
605419.2012 4235335.9693 0.0231
605418.9880 4236645.8780 0.0630
618329.2823 4235911.2071 0.0220
617920.1022 4235176.1209 0.0240
618523.2609 4238540.5670 0.0300
617977.9392 4235352.5968 0.0500
605417.8312 4236414.7395 0.0630
605420.0518 4235326.0056 0.0270
605418.7138 4236694.0858 0.0630
623980.7511 4268304.1703 0.0200
605422.6152 4236372.3143 0.0630
605429.7707 4235524.2551 0.0666
605423.6243 4236609.6058 0.0630
617868.0231 4234978.7035 0.0360
623934.1909 4268252.8358 0.0200
623971.8411 4268219.9810 0.0200
605419.6263 4236398.7504 0.0630
617486.1766 4234324.1141 0.0240
618730.4302 4236934.6279 0.0500
623963.8469 4268138.0820 0.0200
623927.3695 4268169.0121 0.0200
605426.0170 4236702.5932 0.0630
605429.9469 4236567.5496 0.0630
623921.2754 4268087.1078 0.0200
605422.3605 4236335.9837 0.0630
630809.7921 4273778.7972 0.0340
605426.0735 4236663.6241 0.0630
618727.6971 4236884.3170 0.0500
623890.1224 4268199.8831 0.0200
605430.0704 4236387.0145 0.0630
605426.6415 4236344.9839 0.0630
623846.7612 4268146.2013 0.0200
623884.7964 4268116.1783 0.0200
617978.7819 4235549.9780 0.0500
605429.2974 4236448.6575 0.0630
605428.0989 4236472.8673 0.0630
623880.6445 4268035.1713 0.0200
623843.8487 4268063.1630 0.0200
605431.4810 4236629.6602 0.0630
617424.6260 4234115.9197 0.0200
605426.7302 4236291.6244 0.0630
623841.0566 4267982.5436 0.0200
605429.1627 4236497.1673 0.0630
618363.4118 4235999.5031 0.0484
605430.5023 4236520.2915 0.0630
605431.3708 4236682.0367 0.0630
605433.9038 4236358.9896 0.0630
618713.8101 4236701.9276 0.0500
623805.0541 4268092.1703 0.0200
605431.5327 4236331.5903 0.0630
605432.4051 4236426.0097 0.0630
605431.6134 4236542.6441 0.0630
623803.8380 4267928.9315 0.0200
623768.1108 4267873.0539 0.0200
623765.0881 4268036.9881 0.0200
623804.2774 4268009.1490 0.0200
605438.4950 4235496.8120 0.0630
623766.0783 4267954.0053 0.0200
629121.0229 4235892.2564 0.0500
625939.9684 4239103.5029 0.0500
617371.4511 4233873.7005 0.0240
618882.6456 4236312.9391 0.0500
617768.7739 4234892.3778 0.0500
605430.9309 4240553.2035 0.0230
605438.3795 4236591.9643 0.0630
630783.3647 4273650.6164 0.0340
605438.3468 4235347.6205 0.0230
605437.5162 4235357.5860 0.0230
617266.7399 4233596.0854 0.0500
605435.2739 4236403.8598 0.0630
605439.4664 4236689.6106 0.0630
605433.4473 4236711.1361 0.0230
605438.1291 4236648.7147 0.0630
605440.0079 4235327.6896 0.0270
605439.1774 4235337.6551 0.0230
623734.2051 4267817.0583 0.0200
623701.9722 4267758.0437 0.0200
618849.5138 4237060.6503 0.0500
618651.3803 4238370.5911 0.0455
605442.1850 4236375.2045 0.0630
623729.0099 4267897.9512 0.0200
623694.1887 4267839.8684 0.0200
605437.5299 4236297.4770 0.0630
623726.0680 4267981.0850 0.0200
623688.9320 4267923.0119 0.0200
618072.1451 4235798.4288 0.0500
623672.1097 4267699.2249 0.0200
623643.8561 4267638.1416 0.0200
618862.4000 4237682.0364 0.0500
630747.7929 4273580.4002 0.0332
605447.7028 4235478.5366 0.0630
623660.8847 4267780.1307 0.0200
623629.8348 4267719.6829 0.0200
623653.1454 4267863.7326 0.0200
623618.8392 4267802.9420 0.0200
605442.2024 4236316.4429 0.0630
605449.9671 4240524.6645 0.0230
617564.1540 4234556.8667 0.0240
605446.1798 4236339.5993 0.0630
605443.2210 4236668.0654 0.0630
605445.8379 4236613.0659 0.0630
618431.5670 4236043.6538 0.0388
605447.7709 4236697.4332 0.0230
623616.9300 4267576.7854 0.0200
623591.0921 4267513.9867 0.0200
623600.6600 4267657.8413 0.0200
623573.1741 4267595.0405 0.0200
623586.6433 4267741.0711 0.0200
623556.3348 4267678.0080 0.0200
623567.0476 4267452.0904 0.0200
623543.9725 4267389.0521 0.0200
605448.7222 4236393.0014 0.0630
617337.9593 4233738.0868 0.0240
605447.3975 4236461.8887 0.0630
605447.1250 4236485.4427 0.0630
623547.1473 4267532.0221 0.0200
623522.0210 4267469.0267 0.0200
605448.0681 4236508.7723 0.0630
605452.1764 4236675.2411 0.0630
605448.6464 4236438.5978 0.0630
618773.6515 4237890.5301 0.0240
617547.2322 4234558.5031 0.0240
605449.6417 4236531.1921 0.0630
617901.6120 4234960.4518 0.0240
618428.8004 4238639.6037 0.0250
605452.2787 4236632.7515 0.0630
623519.0043 4259375.9356 0.0200
623518.1372 4259299.2819 0.0200
605449.9377 4236415.5127 0.0630
605455.0160 4236359.5541 0.0630
605451.2440 4236553.9105 0.0630
623517.8184 4259527.0427 0.0200
623518.9596 4259451.0804 0.0200
618494.3239 4238736.4078 0.0240
623514.9564 4259676.8273 0.0200
623516.2329 4259601.7914 0.0200
605452.2739 4236301.4209 0.0630
605454.9026 4236576.4168 0.0630
623514.9319 4259223.1198 0.0200
623507.6110 4259146.7977 0.0200
617335.5714 4233803.4114 0.0500
623527.9927 4267614.2237 0.0200
623501.1504 4267550.8886 0.0200
623510.6900 4259825.9805 0.0200
623512.9405 4259751.0077 0.0200
617517.2471 4234601.9506 0.0200
623522.9778 4267326.8358 0.0200
623503.0443 4267263.8346 0.0200
619052.7443 4237614.2025 0.0240
605456.1230 4235514.1100 0.0276
605458.3501 4235349.2668 0.0230
605457.5419 4235359.2341 0.0230
623507.3652 4259975.1723 0.0200
623508.9849 4259900.9699 0.0200
605460.7720 4235460.6609 0.0630
623504.9499 4260124.7295 0.0200
623505.8741 4260049.9246 0.0200
623502.8759 4260274.3870 0.0200
623504.0755 4260199.2869 0.0200
605459.1582 4235339.2995 0.0245
605456.8148 4236651.9420 0.0630
623501.7327 4260424.0694 0.0200
623502.2011 4260349.0055 0.0200
623501.0535 4260573.7304 0.0200
623501.1251 4260498.9506 0.0200
618819.2879 4236541.6624 0.0491
623498.9019 4260723.7756 0.0200
623500.0261 4260648.7466 0.0200
618850.6392 4236385.0365 0.0267
630733.8020 4273641.1920 0.0340
605459.9664 4235329.3322 0.0270
623496.9659 4260873.0454 0.0200
623498.1600 4260798.0252 0.0200
605459.3280 4236320.7516 0.0630
618883.1644 4236533.4525 0.0220
623494.8035 4261022.9219 0.0200
623495.7288 4260948.1512 0.0200
605461.4306 4236597.7251 0.0630
618715.3064 4236120.9548 0.0500
623493.1325 4261172.1247 0.0200
623493.7503 4261097.0929 0.0200
623492.1932 4261321.7330 0.0200
623492.8726 4261247.0817 0.0200
623491.1020 4261471.2674 0.0200
623491.7814 4261396.6314 0.0200
623489.2686 4261620.7676 0.0200
623490.0639 4261546.0736 0.0200
605463.6060 4236380.7180 0.0630
623488.0730 4261770.3635 0.0200
623488.7572 4261695.3073 0.0200
605465.4991 4236659.9335 0.0448
623494.7302 4259069.8280 0.0200
623476.9875 4258995.9332 0.0200
623485.7057 4261919.7058 0.0200
623487.0486 4261844.8398 0.0200
623498.8476 4267405.0054 0.0200
623476.9835 4267341.9748 0.0200
623483.3609 4262069.2795 0.0200
623484.7584 4261994.1581 0.0200
605471.3626 4235496.8566 0.0662
623480.8469 4262218.8199 0.0200
623482.0793 4262143.9862 0.0200
623478.0368 4262369.1596 0.0200
623479.1505 4262293.8460 0.0200
617880.4188 4235075.8952 0.0500
605467.9824 4236341.1303 0.0630
623474.7487 4262518.2629 0.0200
623476.0691 4262443.3935 0.0200
623484.7846 4267201.9976 0.0200
623468.0464 4267138.8451 0.0200
623471.0599 4262667.9372 0.0200
623473.0150 4262592.9743 0.0200
618670.7505 4237969.5851 0.0500
623470.9649 4259450.9030 0.0200
623470.9856 4259376.0262 0.0200
623468.1442 4259600.9442 0.0200
623469.9471 4259525.7451 0.0200
617474.2160 4234364.8283 0.0401
605460.9382 4236682.6169 0.0230
605468.9693 4236617.0698 0.0325
623467.1624 4262817.9008 0.0200
623469.0204 4262743.1536 0.0200
605465.5908 4236496.9732 0.0630
605465.1724 4236474.3558 0.0630
623469.2076 4259300.7767 0.0200
623464.7254 4259226.8302 0.0200
605465.9214 4236451.4120 0.0630
623464.0101 4259750.1166 0.0200
623465.8282 4259675.2138 0.0200
605467.5192 4236404.0401 0.0630
605467.0727 4236519.4228 0.0630
605467.0155 4236428.1354 0.0630
623462.9972 4262967.1584 0.0200
623464.9482 4262892.7112 0.0200
605469.6131 4236303.8009 0.0630
623475.7595 4267486.8826 0.0200
623451.2202 4267422.0204 0.0200
617945.1665 4235711.0160 0.0240
623460.7841 4259899.8760 0.0200
623462.8477 4259824.7848 0.0200
623458.8431 4263117.1672 0.0200
623460.9403 4263042.2770 0.0200
605469.4233 4236542.1652 0.0630
623458.1441 4260049.3428 0.0200
623459.1932 4259974.2682 0.0200
618576.2513 4238476.2086 0.0300
605474.0356 4236667.6432 0.0230
623455.8786 4260198.7656 0.0200
623456.9847 4260124.0616 0.0200
618912.8141 4236549.8710 0.0500
623454.2282 4260348.8046 0.0200
623455.0553 4260273.7220 0.0200
623454.0527 4263266.5745 0.0200
623456.1826 4263192.0805 0.0200
623453.0850 4260498.7273 0.0200
623453.7865 4260423.6167 0.0200
623451.1182 4260648.2267 0.0200
623451.9271 4260573.2032 0.0200
623456.8691 4259153.1951 0.0200
623444.6664 4259080.2412 0.0200
605468.0590 4240495.6421 0.0230
605472.4288 4236563.6171 0.0630
618930.4241 4236391.7127 0.0500
605472.5962 4236636.1921 0.0623
605477.4521 4235476.1691 0.0752
623449.9077 4263416.1967 0.0200
623452.0366 4263341.6838 0.0200
618782.7657 4236886.2667 0.0240
617985.1941 4235132.2274 0.0500
605478.1958 4236363.0072 0.0630
623448.9559 4260797.8095 0.0200
623450.0000 4260722.8955 0.0200
618111.8660 4235747.8485 0.0240
618917.0453 4236499.8507 0.0481
623446.3125 4260947.2712 0.0200
623448.0343 4260871.9973 0.0200
605475.9625 4236583.3308 0.0630
605478.3678 4235350.8654 0.0230
605477.5890 4235360.8350 0.0230
623456.0448 4267278.8668 0.0200
623437.0875 4267215.1179 0.0200
605480.6134 4236645.0766 0.0262
623446.0237 4263566.0310 0.0200
623447.8210 4263491.1806 0.0200
605479.3786 4236322.4747 0.0630
605479.9252 4235330.9261 0.0270
605479.1465 4235340.8957 0.0232
623443.9300 4261096.7410 0.0200
623444.7665 4261022.1131 0.0200
623452.7296 4267076.6006 0.0200
623439.2410 4267013.6634 0.0200
623441.8472 4261246.7554 0.0200
623443.0663 4261171.5708 0.0200
623455.8944 4258922.9859 0.0200
623431.8986 4258851.5684 0.0200
623439.9111 4261396.1822 0.0200
623441.1426 4261321.2095 0.0200
605480.6654 4235453.3425 0.0710
623442.1011 4263715.1070 0.0200
623444.2032 4263641.0185 0.0200
623438.2976 4261545.7751 0.0200
623438.9175 4261470.6306 0.0200
623436.9936 4261694.8321 0.0200
623437.9289 4261620.2271 0.0200
623439.0373 4263864.9171 0.0200
623440.8167 4263790.1861 0.0200
623435.1537 4261844.3138 0.0200
623435.9121 4261769.6969 0.0200
617505.7545 4234186.1889 0.0409
605486.9943 4240466.9555 0.0230
618514.7416 4238592.1919 0.0240
630698.4961 4273817.6391 0.0485
605481.0553 4236603.5379 0.0630
618459.8856 4235961.1407 0.0500
623436.9978 4264013.6887 0.0200
623437.9636 4263939.6416 0.0200
623433.8357 4261993.4516 0.0200
623434.7886 4261919.1583 0.0200
618809.6708 4236938.8096 0.0240
623436.0717 4264157.9624 0.0200
623436.0650 4264086.7560 0.0200
623434.7000 4264294.9954 0.0200
623435.9447 4264227.1319 0.0200
623432.1779 4262143.1926 0.0200
623433.0977 4262068.6387 0.0200
623431.9692 4264427.1902 0.0200
623433.3749 4264361.0803 0.0200
605488.5089 4236389.6160 0.0630
605482.8730 4236485.8198 0.0630
605482.9816 4236464.0558 0.0630
623430.0667 4262292.9922 0.0200
623430.9464 4262218.0444 0.0200
623428.0631 4264560.9089 0.0200
623430.0290 4264494.1008 0.0200
618552.9044 4238851.1245 0.0300
623426.9598 4262442.8690 0.0200
623428.0019 4262367.8514 0.0200
605483.8656 4236507.5939 0.0630
605484.3207 4236441.4337 0.0630
617359.1174 4233687.3164 0.0240
623424.1978 4262592.0631 0.0200
623425.7942 4262517.1117 0.0200
623423.8577 4264695.0783 0.0200
623425.9027 4264627.8695 0.0200
605485.8406 4236529.8396 0.0630
605487.9864 4236305.3897 0.0630
623427.7851 4266950.1835 0.0200
623418.0950 4266886.9492 0.0200
605486.1722 4236417.5853 0.0630
623423.9527 4259376.2423 0.0200
623421.8759 4259302.9145 0.0200
623421.8619 4259525.0119 0.0200
623423.1753 4259450.0821 0.0200
605491.1469 4236342.0526 0.0630
623421.0413 4262741.7868 0.0200
623422.9944 4262666.9174 0.0200
605489.4850 4236622.5015 0.0630
618610.6243 4238813.1954 0.0240
623420.7711 4264829.0904 0.0200
623422.1448 4264762.1754 0.0200
623417.9202 4259674.0126 0.0200
623419.9878 4259599.1816 0.0200
605489.1953 4236551.8262 0.0630
618337.2140 4236002.5310 0.0500
623428.8582 4267358.3271 0.0200
623408.1485 4267294.0543 0.0200
623417.8733 4262891.2664 0.0200
623419.1731 4262817.0136 0.0200
623427.9998 4259008.8287 0.0200
623407.7885 4258937.7991 0.0200
623417.9029 4264962.9704 0.0200
623419.3275 4264896.0403 0.0200
618512.4710 4238527.3884 0.0300
623415.9467 4265096.7907 0.0200
623416.8529 4265029.6948 0.0200
605489.5982 4236568.2165 0.0630
623414.0153 4259823.9823 0.0200
623416.0338 4259748.9563 0.0200
605488.4482 4236586.6165 0.0630
605496.5755 4236632.2572 0.0230
617337.3956 4233763.3153 0.0240
623413.9291 4263041.0312 0.0200
623415.9357 4262966.0174 0.0200
605488.2438 4236653.9594 0.0230
623413.9990 4265230.0082 0.0200
623415.0742 4265163.1808 0.0200
617556.3126 4234245.0562 0.0500
623416.9148 4259230.6883 0.0200
623408.8946 4259159.7625 0.0200
623419.9510 4267151.3118 0.0200
623404.7463 4267087.2344 0.0200
623412.1494 4265363.1897 0.0200
623412.9307 4265296.8638 0.0200
623411.0592 4259973.5405 0.0200
623412.7646 4259898.6492 0.0200
623410.1930 4263190.7188 0.0200
623412.0206 4263115.8853 0.0200
605496.1824 4235489.1559 0.0643
605498.4280 4235352.3971 0.0230
605497.7034 4235362.3708 0.0230
623409.8396 4265496.9770 0.0200
623411.0590 4265430.1641 0.0200
605494.9620 4236595.5658 0.0630
618339.1648 4235873.6592 0.0500
618735.5934 4236837.6333 0.0263
605499.1525 4235342.4234 0.0230
623408.9660 4260123.2852 0.0200
623410.0567 4260048.8356 0.0200
623407.9905 4265630.2046 0.0200
623409.0906 4265563.1306 0.0200
623407.0317 4260273.1554 0.0200
623408.0412 4260198.3470 0.0200
623405.7319 4265763.0198 0.0200
623407.0339 4265697.0874 0.0200
623409.8886 4266822.5194 0.0200
623403.1624 4266758.7322 0.0200
623405.9587 4263340.2518 0.0200
623408.0222 4263265.2450 0.0200
623405.0503 4260423.3024 0.0200
623406.0798 4260348.3206 0.0200
605497.7868 4235441.1968 0.0632
605499.9999 4236322.0444 0.0630
