   608769.905017546        4240048.36476849       0.352047860689196     
   608755.180335279        4240110.06587809       0.351301360675595     
   610143.287800392        4241554.29274135       0.420000000000000     
   610140.944900853        4241466.97191972       0.420000000000000     
   610164.575372400        4241491.38362231       0.420000000000000     
   610206.501513917        4241533.72182046       0.420000000000000     
   617023.164471219        4237666.27165185       0.170100000000000     
   616939.425723030        4233575.37901809       0.175400000000000     
   616967.375902629        4233540.15426212       0.175400000000000     
   616954.337700403        4233547.99972942       0.175400000000000     
   616896.314158242        4233570.21979550       0.175400000000000     
   616867.851411626        4233550.37907732       0.175400000000000     
   616838.994471455        4233527.51428045       0.175400000000000     
   616850.767491740        4233488.17964116       0.175400000000000     
   616866.681035727        4233450.69078007       0.175400000000000     
   616911.170230308        4233721.42715684       0.175400000000000     
   616907.661610877        4233686.13063425       0.175400000000000     
   616892.758475078        4233647.98475897       0.175400000000000     
   617111.779467726        4233584.10665560       0.175400000000000     
   617076.354600516        4233584.44661571       0.175400000000000     
   617102.470291535        4233550.03611468       0.175400000000000     
   617091.378446272        4233514.95410279       0.175400000000000     
   617200.607557822        4237251.41682999       0.171250556472902     
   617165.205653674        4237335.38744740       0.170100000000000     
   617130.637466093        4237418.75671458       0.170100000000000     
   617095.043963212        4237501.47387264       0.170100000000000     
   617059.391697860        4237584.08148453       0.170100000000000     
   617413.203830335        4227930.06922929       0.136300000000000     
   617405.531361693        4228023.09842272       0.136300000000000     
   617479.197674667        4228001.97806434       0.136300000000000     
   617547.819805142        4228076.46803203       0.136300000000000     
   617617.342177812        4228156.34718003       0.136300000000000     
   617678.599910411        4228244.40189935       0.136300000000000     
   617733.900318306        4228337.00620579       0.136300000000000     
   611575.375470125        4234913.28520779       0.184835322367253     
   611586.583933591        4234975.52575053       0.184948150736938     
   611613.369724047        4234986.54507230       0.197713806237766     
   611550.550451242        4234857.73509980       0.184753377853413     
   611511.161827858        4234819.14128498       0.184695059092927     
   611463.769582418        4234789.33134023       0.184598379954716     
   609015.090063041        4239365.40520207       0.351279073273653     
   609035.996246912        4239393.48971443       0.346698577589750     
   609056.701424959        4239422.26188539       0.342522172066317     
   609076.841263738        4239452.41665130       0.338949036435158     
   608950.530995525        4239715.74704947       0.343083092547197     
   608912.622661318        4239747.57188278       0.344086924203856     
   608855.246903109        4239801.59417775       0.345905051107281     
   608832.402671430        4239869.87879024       0.347590239470887     
   608817.661860359        4239933.70344315       0.349151452038912     
   608803.149782193        4239996.85981062       0.350602549156560     
   608789.023649913        4240060.93473735       0.351899160542738     
   610185.106930688        4241512.29811560       0.420000000000000     
   610181.815079991        4241424.96011731       0.420000000000000     
   610206.384522839        4241449.19825142       0.420000000000000     
   610248.678215590        4241491.74037804       0.420000000000000     
   617009.711429426        4237592.80251121       0.170100000000000     
   616919.250941811        4233553.29639753       0.175400000000000     
   616958.671768208        4233520.91487787       0.175400000000000     
   616936.570145625        4233535.04406386       0.175400000000000     
   616907.138499569        4233554.36471940       0.175400000000000     
   616880.668631748        4233534.32447408       0.175400000000000     
   616855.336656251        4233512.06901776       0.175400000000000     
   616866.424225456        4233481.02253703       0.175400000000000     
   616871.348985205        4233458.31735387       0.175400000000000     
   616894.266794951        4233697.96674196       0.175400000000000     
   616881.635842156        4233662.35965047       0.175400000000000     
   616862.619961865        4233628.31669898       0.175400000000000     
   617089.734078576        4233567.15474966       0.175400000000000     
   617052.107518062        4233565.90776417       0.175400000000000     
   617078.239532233        4233531.59741142       0.175400000000000     
   617067.457419211        4233495.15153458       0.175400000000000     
   617185.986963012        4237177.02642061       0.171246111146297     
   617151.178040345        4237261.21407786       0.170100000000000     
   617116.113585058        4237345.01690761       0.170100000000000     
   617081.327749952        4237427.99734772       0.170100000000000     
   617045.887685959        4237510.48930267       0.170100000000000     
   617437.446031809        4228014.78213223       0.136300000000000     
   617433.675856775        4228103.51484495       0.136300000000000     
   617498.813670031        4228087.70823104       0.136300000000000     
   617565.815916384        4228165.12594534       0.136300000000000     
   617628.392128215        4228248.98643909       0.136300000000000     
   617685.285286548        4228338.23936007       0.136251307628032     
   617735.427064556        4228433.63905234       0.136253176293711     
   611581.767114897        4234855.56550340       0.184679300588234     
   611598.333311016        4234789.14852349       0.184452208076570     
   611656.544294021        4234937.15378116       0.206192041366995     
   611605.619028444        4234919.90024399       0.184781332583934     
   611636.829730132        4234932.13360745       0.189605860899406     
   611612.622496907        4234853.49698806       0.184537059181430     
   611539.971296184        4234808.93043468       0.184604890734603     
   611491.360373351        4234776.48063665       0.184500584261625     
   611439.915593870        4234736.41548298       0.184395804635807     
   609043.095188631        4239375.69584520       0.344714898501854     
   609063.584733367        4239404.63557846       0.342390554373229     
   609084.587786426        4239433.94660954       0.338775356462341     
   609104.536351783        4239464.09719495       0.335891404793531     
   608988.299544589        4239728.60036432       0.342102592547784     
   608916.034030699        4239754.84310225       0.344098456067788     
   608871.172964607        4239817.37331073       0.345928023758266     
   608849.592579651        4239881.54357800       0.347589569869225     
   608835.365776455        4239944.67668347       0.349149802173718     
   608821.339289941        4240008.31857103       0.350651607716092     
   610227.638302062        4241470.47599759       0.420000000000000     
   610224.424302482        4241382.85674121       0.420000000000000     
   610248.156318139        4241406.94006780       0.420000000000000     
   610290.888942626        4241449.70743636       0.420000000000000     
   616997.685062029        4237519.26833821       0.170100000000000     
   616930.839765728        4233536.04200477       0.175400000000000     
   616945.445939947        4233519.77080233       0.175400000000000     
   616895.295649110        4233535.65741232       0.175400000000000     
   616872.421121564        4233516.25456612       0.175400000000000     
   616881.791505448        4233488.04201303       0.175400000000000     
   616887.981102437        4233461.46697172       0.175400000000000     
   616870.700564135        4233676.65319555       0.175400000000000     
   616852.898237724        4233643.84819033       0.175400000000000     
   616833.466966164        4233611.79326935       0.175400000000000     
   617064.933903434        4233548.50907212       0.175400000000000     
   617026.272906398        4233545.75127443       0.175400000000000     
   617053.857304318        4233511.63168905       0.175400000000000     
   617044.040436016        4233475.11671429       0.175400000000000     
   617172.083048551        4237102.64832536       0.171171643770368     
   617136.121784923        4237186.65076757       0.170100000000000     
   617101.525140515        4237270.83624329       0.170100000000000     
   617067.333081865        4237354.59919637       0.170100000000000     
   617032.656349453        4237437.19471765       0.170100000000000     
   617460.911895080        4228096.13712533       0.136300000000000     
   617449.231730136        4228186.01958835       0.136300000000000     
   617518.167891236        4228174.27528465       0.136300000000000     
   617579.676739589        4228254.19850970       0.136300000000000     
   617635.083672050        4228340.08032893       0.136300000000000     
   617684.181915634        4228431.01675644       0.136245498124909     
   617721.798913001        4228528.83190124       0.136204356001328     
   611567.709023842        4234799.69374298       0.184539491577357     
   611572.314766606        4234740.22884811       0.184252461224742     
   611677.110675934        4234866.54600737       0.192787223906177     
   611628.635110095        4234925.03455680       0.184741195018945     
   611687.871639592        4234867.03460512       0.196536856022689     
   611631.094459056        4234852.64052421       0.184377432988533     
   611518.436941866        4234764.28217087       0.184450119626651     
   611469.219125294        4234727.44659384       0.184366689014033     
   611427.841976169        4234669.17201051       0.184156345639820     
   611427.183461676        4234595.38533735       0.183797095422298     
   609070.738938262        4239386.46254348       0.342312620797307     
   609091.793914867        4239415.45366955       0.338680671713215     
   609112.376557252        4239444.84941903       0.335697128814560     
   609132.274883026        4239474.73307206       0.333513053066391     
   608989.237559558        4239738.76086969       0.342158998785766     
   608926.083520378        4239776.55992352       0.344219905305051     
   608886.289713064        4239832.54077345       0.345928449629860     
   608867.114224169        4239893.46043105       0.347589573433468     
   608854.654390380        4239956.62423028       0.348304996121788     
   610269.640854222        4241428.61783815       0.420000000000000     
   610265.940691257        4241340.93230600       0.420000000000000     
   610291.969485172        4241281.41405475       0.420000000000000     
   610290.700855269        4241366.17900182       0.420000000000000     
   610332.742934835        4241407.53475175       0.420000000000000     
   616984.050963044        4237445.88383833       0.170100000000000     
   616915.860917583        4233519.86409708       0.175400000000000     
   616941.457399030        4233508.80084551       0.175400000000000     
   616907.697531082        4233519.68164082       0.175400000000000     
   616886.477332630        4233501.94174377       0.175400000000000     
   616896.360392169        4233474.10021634       0.175400000000000     
   616843.498051864        4233658.78065127       0.175400000000000     
   616824.308394597        4233626.37619768       0.175400000000000     
   616807.651728606        4233593.51265629       0.175400000000000     
   617039.773871034        4233529.03761460       0.175400000000000     
   617001.830526580        4233526.06169481       0.175400000000000     
   617029.913738520        4233492.03888803       0.175400000000000     
   617021.959430822        4233455.78983092       0.175400000000000     
   617155.276368357        4237022.21143020       0.171145065796654     
   617121.484174089        4237112.71679267       0.170100000000000     
   617086.307524179        4237196.99910655       0.170100000000000     
   617052.269554293        4237281.08387709       0.170100000000000     
   617018.956223814        4237364.12657087       0.170100000000000     
   617478.323153386        4228181.71571657       0.136300000000000     
   617457.430029626        4228269.46725734       0.136300000000000     
   617531.547624876        4228259.90172870       0.136300000000000     
   617586.362400434        4228343.23825862       0.136300000000000     
   617638.128637276        4228431.52366183       0.136249844467839     
   617681.736565305        4228525.15964972       0.136200000000000     
   617704.354083916        4228625.51801360       0.136200000000000     
   611546.619882273        4234750.90540086       0.184350169073645     
   611558.131648899        4234696.41731750       0.184026842690679     
   611573.279491710        4234691.88133218       0.183946159602448     
   611654.371974631        4234859.34138431       0.184318326807726     
   611695.877932888        4234796.16415683       0.186932376680760     
   611634.897824175        4234789.38387414       0.183901041936457     
   611708.267673418        4234793.40041219       0.187413303726456     
   611498.050431803        4234718.68735340       0.184255153055982     
   611459.187505023        4234669.68831422       0.184110871567338     
   611442.327323573        4234601.18877646       0.183792356334639     
   611447.320924325        4234525.73989504       0.183390513748099     
   609098.636941316        4239396.57040966       0.337202750290451     
   609119.737328982        4239425.81137141       0.335662372917013     
   609139.885591313        4239455.95270783       0.333403796096457     
   609159.950740530        4239486.53772840       0.331749695733431     
   609054.716128404        4239738.77812951       0.339946847914152     
   608992.012488337        4239760.89866189       0.342308512849024     
   608935.228877049        4239796.07599343       0.344248550183100     
   608901.092143366        4239847.43556211       0.345920646837236     
   608885.460466030        4239905.89191184       0.346951887891827     
   610311.495006604        4241386.48021058       0.420000000000000     
   610308.449086487        4241301.83264739       0.420000000000000     
   610326.773961808        4241236.27104551       0.420000000000000     
   610331.554754088        4241323.14495011       0.420000000000000     
   610374.483927183        4241365.01884709       0.419980960305203     
   616970.720091251        4237373.79063625       0.170100000000000     
   616926.917519078        4233506.36193280       0.175400000000000     
   616898.332538741        4233504.50647034       0.175400000000000     
   616903.946437098        4233475.07323431       0.175400000000000     
   616814.397146896        4233642.31400681       0.175400000000000     
   616796.901170237        4233608.89999473       0.175400000000000     
   616782.296106909        4233575.72973068       0.175400000000000     
   617016.023916876        4233508.97821278       0.175400000000000     
   616979.676779840        4233507.00744314       0.175400000000000     
   617007.074527358        4233473.00585433       0.175400000000000     
   617000.984930016        4233438.46096342       0.175400000000000     
   617138.706819512        4236934.53887364       0.180768841561313     
   617105.516023261        4237032.42741761       0.170100000000000     
   617070.809425727        4237122.83243561       0.170100000000000     
   617036.643826971        4237207.46210600       0.170100000000000     
   617003.706370918        4237291.37117243       0.170100000000000     
   617489.451696249        4228265.15893869       0.136300000000000     
   617472.402709238        4228352.17756554       0.136300000000000     
   617538.925412552        4228346.69196652       0.136300000000000     
   617591.394388610        4228432.74130001       0.136250427148221     
   617638.043134824        4228523.94515331       0.136200000000000     
   617672.398276159        4228623.20825560       0.136200000000000     
   617700.165645898        4228729.03624215       0.136200000000000     
   611527.858312084        4234709.83426241       0.184166941007256     
   611547.379621802        4234670.60303336       0.183858240788587     
   611584.310823943        4234655.90922839       0.183604352984528     
   611669.134782133        4234791.44861968       0.183699563764879     
   611697.308396532        4234736.37105238       0.183037856187176     
   611710.287639616        4234731.17086625       0.182958595234741     
   611490.129290444        4234670.09061704       0.184024369542113     
   611471.299992856        4234611.48989652       0.183772640773579     
   611473.880527511        4234543.58020671       0.183406412338479     
   611493.439562775        4234469.20052741       0.182959895268777     
   609127.058619709        4239406.81443586       0.335568255796084     
   609147.630866129        4239437.08111465       0.333298612295458     
   609167.704351464        4239467.43767405       0.331653435400700     
   609187.590711135        4239497.75322730       0.330598547106251     
   609113.235597280        4239735.69308552       0.337586944536655     
   609055.270653758        4239759.97484659       0.340148535194898     
   608994.661858704        4239781.89784950       0.342456198243735     
   608944.372508758        4239815.60390024       0.344331914883220     
   608916.706998338        4239863.00231053       0.345363214615317     
   610353.009145353        4241344.17403153       0.420000000000000     
   610352.044977413        4241260.23875714       0.420000000000000     
   610371.007449001        4241197.24838923       0.420000000000000     
   610372.525953142        4241280.47210466       0.420000000000000     
   610416.016843171        4241322.23721970       0.417990100533681     
   616955.515925901        4237301.58645698       0.170100000000000     
   616924.812276601        4233500.18010033       0.175400000000000     
   616909.550261049        4233491.87826058       0.175400000000000     
   616786.726297850        4233623.05124961       0.175400000000000     
   616771.286204409        4233588.88107102       0.175400000000000     
   616761.144644976        4233554.85798918       0.175400000000000     
   616993.013688314        4233490.34631994       0.175400000000000     
   616958.116986857        4233490.64055433       0.175400000000000     
   616986.868697744        4233455.87849269       0.175400000000000     
   616981.330722992        4233422.59733920       0.175400000000000     
   617119.445913274        4236846.57040868       0.180778683435603     
   617086.863636678        4236945.48277787       0.170100000000000     
   617054.767910759        4237043.03119982       0.170100000000000     
   617020.530543934        4237133.41814057       0.170100000000000     
   616987.946283918        4237218.11420608       0.170100000000000     
   617500.125808231        4228349.41213847       0.136300000000000     
   617473.143474792        4228437.46030503       0.136250586711167     
   617544.423671254        4228435.09199843       0.136250196333786     
   617593.768036637        4228525.66202105       0.136200000000000     
   617639.603306759        4228623.75659426       0.136200000000000     
   617676.857971325        4228730.36523957       0.136200000000000     
   617718.653446612        4228838.74820539       0.136158465103202     
   611516.592302060        4234670.40459238       0.183960236991748     
   611558.425412142        4234646.97606236       0.183654589327795     
   611597.141722479        4234625.95041257       0.183267924671784     
   611614.431608431        4234621.69824289       0.183094078385638     
   611670.569852486        4234735.19747500       0.183139092009919     
   611699.013945969        4234687.86061639       0.182686127896672     
   611714.207684927        4234680.39901213       0.182567011202195     
   611499.104485824        4234621.50423138       0.183704046208215     
   611497.992608184        4234560.18951385       0.183409566352355     
   611515.300458826        4234493.73705920       0.182960829920330     
   611554.922762668        4234427.97132281       0.182463576867097     
   609155.219187932        4239418.14642392       0.333296009710418     
   609175.408832846        4239448.41518593       0.331601227942435     
   609195.512996662        4239478.47848920       0.330495593925311     
   609214.933396025        4239509.05667914       0.329839506850849     
   609296.941061077        4239609.98171533       0.329551086886959     
   609169.639402236        4239728.50850129       0.335177596827426     
   609115.105301768        4239757.67568273       0.337744008099566     
   609055.854417083        4239780.85647036       0.340357067846095     
   608997.318869130        4239802.79082441       0.342613811188255     
   608953.230583289        4239834.75802523       0.343382577593539     
   610394.489817621        4241301.42062022       0.420000000000000     
   610391.442624284        4241216.51358464       0.420000000000000     
   610411.048464238        4241154.10659571       0.420000000000000     
   610414.289507332        4241237.92207427       0.420000000000000     
   610457.449124826        4241279.09471590       0.417105104378841     
   616939.380837583        4237229.02139139       0.170100000000000     
   616934.328520928        4233489.65968146       0.175400000000000     
   616917.041660745        4233493.14126561       0.175400000000000     
   616943.786299270        4233478.49177132       0.175400000000000     
   616760.397781873        4233603.37353441       0.175400000000000     
   616747.026572486        4233569.38876893       0.175400000000000     
   616748.443728256        4233540.41204414       0.175400000000000     
   616971.973320738        4233473.58771546       0.175400000000000     
   616967.444746549        4233440.38254402       0.175400000000000     
   616963.705912877        4233407.81631393       0.175400000000000     
   617100.357646038        4236757.96827748       0.180558492523577     
   617068.143756456        4236857.69619854       0.170100000000000     
   617036.152457400        4236956.51835530       0.170100000000000     
   617004.308728198        4237053.54952899       0.170100000000000     
   616971.153856076        4237143.83348978       0.170100000000000     
   617503.800422019        4228437.37016092       0.136249689909068     
   617474.420142828        4228527.19768757       0.136200000000000     
   617548.072508789        4228526.03922409       0.136200000000000     
   617595.449742083        4228623.68845748       0.136200000000000     
   617639.278571187        4228729.79100020       0.136200000000000     
   617676.652172795        4228840.97167164       0.136198292574679     
   617727.258459399        4228952.27267546       0.136100096533805     
   611528.525723636        4234631.72159378       0.183656657194655     
   611572.500432558        4234610.50651529       0.183282105999769     
   611615.356772501        4234607.01106750       0.182940811845638     
   611671.008272083        4234685.72437830       0.182796564985445     
   611704.378349309        4234650.52438045       0.182394632310937     
   611523.283860359        4234577.37959419       0.183367014452111     
   611536.029135722        4234517.20944422       0.182961442172146     
   611570.150649805        4234458.58472254       0.182459442404186     
   611623.329625952        4234410.64846830       0.181800838406337     
   609183.219482044        4239429.18675920       0.331588064551053     
   609203.272250814        4239459.64129512       0.330447856307679     
   609222.991934829        4239490.13622931       0.329749977055240     
   609242.458094824        4239522.01298594       0.329404373269809     
   609308.127520075        4239607.99080529       0.329531602145117     
   609223.523116615        4239715.23910657       0.333024125949816     
   609173.689012654        4239750.11962204       0.335285446936067     
   609116.865935691        4239778.57367242       0.337940295501051     
   609056.454923410        4239801.73864260       0.340548652103707     
   609000.132081835        4239824.33943382       0.341373981465859     
   610435.642689041        4241258.39901672       0.420000000000000     
   610432.819787790        4241174.28032526       0.420000000000000     
   610454.421443153        4241194.48833310       0.420000000000000     
   610498.572500403        4241235.38234774       0.420000000000000     
   616921.969964630        4237155.25514718       0.170100000000000     
   616925.159251047        4233482.03663368       0.175400000000000     
   616941.185682807        4233471.90442868       0.175400000000000     
   616753.698975034        4233523.59424027       0.175400000000000     
   616732.573608528        4233581.64946113       0.175400000000000     
   616729.454158763        4233544.35521754       0.175400000000000     
   616953.385051615        4233457.54825966       0.175400000000000     
   616948.646905905        4233425.27578420       0.175400000000000     
   616945.332902762        4233393.00283379       0.175400000000000     
   617081.345920433        4236668.52761431       0.180751786868519     
   617048.703405834        4236769.03560453       0.170100000000000     
   617016.640444043        4236868.84122537       0.170100000000000     
   616985.226970673        4236967.75505784       0.170100000000000     
   616954.042450895        4237064.51019886       0.170100000000000     
   617505.618512536        4228526.01227307       0.136200000000000     
   617476.839265447        4228619.90416428       0.136200000000000     
   617545.265980486        4228622.93974530       0.136200000000000     
   617592.212578472        4228728.11824726       0.136200000000000     
   617634.282329647        4228839.34236604       0.136200000000000     
   617678.952116204        4228956.65137094       0.136143004492177     
   617740.443161287        4229078.69072977       0.136111906722482     
   611548.560701323        4234595.62251299       0.183360537697435     
   611596.304526800        4234584.90617761       0.182960632532955     
   611637.259276910        4234590.75769763       0.182624753636863     
   611642.503568610        4234592.27865309       0.182582470315159     
   611729.000229294        4234637.43841190       0.182055313391451     
   611680.591149274        4234643.36064674       0.182449529109008     
   611679.856450870        4234598.69703324       0.182200013341891     
   611556.035685194        4234540.13620049       0.182965072729065     
   611583.657442597        4234485.06841334       0.182461696425906     
   611629.799100433        4234435.91725801       0.181815855723498     
   609210.926487063        4239440.39670362       0.330155552639290     
   609230.825298678        4239470.79587956       0.329750195423178     
   609250.595698361        4239501.27676078       0.329400739587972     
   609270.117083544        4239532.01636188       0.329250459322593     
   609317.620151963        4239621.35794910       0.329624201892640     
   609272.500306388        4239695.19162795       0.331276157110401     
   609230.442895513        4239736.31030943       0.333026224130338     
   609177.504072149        4239770.77958776       0.335426975144904     
   609118.587304605        4239799.61526042       0.338095287853161     
   609056.999626971        4239824.70165144       0.340445548197262     
   610476.816657062        4241215.19966045       0.420000000000000     
   610470.363873185        4241132.35200546       0.420000000000000     
   610494.362906960        4241151.84787690       0.420000000000000     
   610540.556493717        4241188.98995720       0.418807498635130     
   616904.036424214        4237075.51264925       0.170100000000000     
   616934.716054327        4233470.77643044       0.175400000000000     
   616765.010597898        4233499.90074177       0.175400000000000     
   616735.574682151        4233515.25099734       0.175400000000000     
   616712.281878234        4233547.90933551       0.175400000000000     
   616935.005057285        4233442.79108718       0.175400000000000     
   616931.197786340        4233410.73487946       0.175400000000000     
   616927.540361515        4233378.53761136       0.175400000000000     
   617060.818839261        4236579.27624235       0.180136035933999     
   617028.928377193        4236680.10624989       0.170100000000000     
   616997.443375003        4236780.70656608       0.170100000000000     
   616965.693189299        4236880.31998959       0.170100000000000     
   616934.886366265        4236979.02494742       0.170100000000000     
   617507.077678356        4228621.74202683       0.136200000000000     
   617462.616026911        4228718.09520802       0.136200000000000     
   617543.232624960        4228725.46174822       0.136200000000000     
   617585.750244712        4228836.54163424       0.136200000000000     
   617628.233733177        4228954.50758593       0.136200000000000     
   617681.945866921        4229074.75244133       0.136140224950976     
   617735.360967456        4229205.55862041       0.136152883462011     
   611575.845106649        4234561.74602848       0.182975950574907     
   611624.141990225        4234565.39686454       0.182573465324714     
   611663.563045597        4234575.03405290       0.182231678212086     
   611671.026778941        4234579.84072120       0.182194058119391     
   611719.888599523        4234615.03914012       0.181909151227796     
   611698.090708799        4234606.35287729       0.182083514941363     
   611597.262637977        4234511.53542003       0.182502807374027     
   611637.058919636        4234465.63103382       0.181865437031671     
   611687.664080095        4234428.92195195       0.181054709609867     
   609238.752670738        4239451.90291586       0.329749342175270     
   609258.053806479        4239482.13324311       0.329352453716567     
   609277.847945937        4239511.52715935       0.329199889206155     
   609296.659606688        4239541.62897190       0.329200000000000     
   609331.698590274        4239623.97038782       0.329649655079983     
   609313.049535743        4239665.75655529       0.330264108326538     
   609283.094688145        4239714.12544149       0.331320646892016     
   609237.034375843        4239756.31328709       0.333082684714421     
   609181.372239398        4239791.49220193       0.335528552817068     
   609120.412525645        4239821.42727239       0.338242691588614     
   610517.510673995        4241170.31260153       0.420000000000000     
   610500.516388105        4241092.87919766       0.420000000000000     
   610526.348408057        4241105.59671871       0.420000000000000     
   610581.995032819        4241133.88707413       0.408125694305377     
   616885.640422079        4236991.42616923       0.170100000000000     
   616921.536682516        4233459.63908139       0.175400000000000     
   616781.878352129        4233478.94344149       0.175400000000000     
   616750.385515840        4233490.88264850       0.175400000000000     
   616717.315466157        4233509.13504439       0.175400000000000     
   616916.776553395        4233428.68222816       0.175400000000000     
   616913.319706350        4233397.04074100       0.175400000000000     
   616909.681001516        4233364.60260886       0.175400000000000     
   617041.070766986        4236490.02833483       0.179617791177203     
   617009.309952770        4236590.80283416       0.170100000000000     
   616977.228252274        4236691.53035460       0.170100000000000     
   616945.572635812        4236792.00068596       0.170100000000000     
   616913.205237228        4236892.25429419       0.170100000000000     
   617496.413688637        4228721.84159942       0.136200000000000     
   617453.314537929        4228820.56955913       0.136200000000000     
   617531.542698304        4228831.31952293       0.136200000000000     
   617575.565481685        4228947.59810385       0.136200000000000     
   617614.963116849        4229068.91111581       0.136200000000000     
   617660.438432239        4229195.63929462       0.136150567386622     
   617710.048770941        4229336.07249879       0.136200000000000     
   611611.020533288        4234539.12777091       0.182565533005286     
   611658.533104164        4234553.70700177       0.182108072877796     
   611700.774464605        4234563.90324034       0.181701902403185     
   611750.713183967        4234591.35906518       0.181201306419506     
   611708.221910192        4234577.31231109       0.181717591255284     
   611644.223961695        4234495.43920240       0.181956038300292     
   611690.543194068        4234458.82381020       0.181141490073046     
   611738.360944203        4234426.25130973       0.180259030514781     
   611782.440264866        4234395.01337770       0.179298845078239     
   609265.451323485        4239463.71120815       0.329353590834360     
   609284.820434723        4239492.08200360       0.329150448726535     
   609304.598880905        4239521.11508290       0.329150936765289     
   609326.991711059        4239552.28930513       0.329251986864613     
   609340.718693917        4239630.55237112       0.329697023245606     
   609328.614836282        4239681.60859230       0.330237786031277     
   609293.576084204        4239732.78119181       0.331283310155247     
   609243.592092506        4239776.27276600       0.333078085743601     
   609185.426866206        4239813.16964701       0.335587573573792     
   610553.555378631        4241119.58427584       0.420000000000000     
   610515.352712287        4241047.24897496       0.420000000000000     
   610543.965579524        4241053.61747570       0.420000000000000     
   610603.947575176        4241066.04014869       0.400196042691381     
   616862.616298383        4236903.41694407       0.170100000000000     
   616903.744657792        4233445.85082095       0.175400000000000     
   616798.360252373        4233456.77216654       0.175400000000000     
   616767.053938382        4233467.60423379       0.175400000000000     
   616735.329083870        4233480.30055202       0.175400000000000     
   616898.817521201        4233414.54328583       0.175400000000000     
   616893.695802510        4233380.81643281       0.175400000000000     
   616891.656762461        4233347.98247157       0.175400000000000     
   617021.318130854        4236401.29843787       0.179716745925601     
   616989.092953106        4236501.68351040       0.170100000000000     
   616957.920694844        4236602.23400701       0.170100000000000     
   616926.347827001        4236702.85021515       0.170100000000000     
   616895.491141248        4236803.40928197       0.170100000000000     
   617487.849066972        4228825.22594163       0.136200000000000     
   617431.852894939        4228923.36281728       0.136200000000000     
   617518.085130808        4228939.32135898       0.136200000000000     
   617555.036766535        4229058.50824309       0.136200000000000     
   617598.069685663        4229183.40363384       0.136200000000000     
   617641.504721754        4229321.34852171       0.136242612220771     
   617684.933328382        4229475.83064205       0.136252493749731     
   611651.183341172        4234524.31969670       0.182024515176359     
   611699.227523500        4234547.54133999       0.181581653963866     
   611749.801021635        4234577.28466139       0.181082956427280     
   611693.494191732        4234488.44273144       0.181284826877230     
   611740.764511439        4234455.39520768       0.180355380274481     
   611785.945459971        4234420.83371156       0.179446381423978     
   611830.593933805        4234387.57086946       0.178544655458838     
   609291.375985608        4239474.18200520       0.329151158113104     
   609311.757967495        4239501.55392748       0.329150389138168     
   609334.809298230        4239533.02778035       0.329250511437428     
   609353.750112802        4239565.56975962       0.329353946328178     
   609359.201898790        4239599.66196286       0.329495667892053     
   609357.911378702        4239641.78837355       0.329752078405783     
   609343.043490876        4239696.30549629       0.330209660424863     
   609303.878228500        4239751.08817433       0.331316946543886     
   609250.447501484        4239797.19270174       0.333132358342656     
   610573.696910794        4241059.62425307       0.420000000000000     
   610519.090871123        4240994.18903107       0.420000000000000     
   610549.216713652        4240996.22440942       0.420000000000000     
   610608.615161804        4241000.82045152       0.408612062709278     
   616844.282862990        4236814.08429347       0.170100000000000     
   616884.914753369        4233432.63973571       0.175400000000000     
   616813.768429379        4233434.24235349       0.175400000000000     
   616783.820704863        4233446.44987696       0.175400000000000     
   616753.102246390        4233457.20980695       0.175400000000000     
   616878.400062269        4233398.08422643       0.175400000000000     
   616877.204593412        4233363.42595305       0.175400000000000     
   616876.303535980        4233332.23575859       0.175400000000000     
   617000.912989693        4236313.04496967       0.181287031457471     
   616969.089204689        4236413.15674347       0.170100000000000     
   616937.459373551        4236513.51074599       0.170100000000000     
   616906.919406875        4236613.74308675       0.170100000000000     
   616874.438510906        4236713.91173243       0.170100000000000     
   617467.461685335        4228931.34882833       0.136200000000000     
   617406.353945791        4229026.24135411       0.136200000000000     
   617499.219989516        4229046.97735639       0.136200000000000     
   617533.620113455        4229170.08613473       0.136200000000000     
   617567.656387077        4229302.93283137       0.136251213286235     
   617600.844578849        4229449.31469460       0.136298718042704     
   617628.418759556        4229626.87622077       0.136443546065490     
   617609.601400000        4229826.83062500       0.136721715152602     
   611696.564337726        4234518.51815968       0.181403029888514     
   611748.263609202        4234545.87246022       0.180846083948785     
   611804.391350456        4234571.16568425       0.180094833816592     
   611743.311056238        4234485.42659487       0.180498383180219     
   611789.455905279        4234450.50576392       0.179554042783621     
   611834.239247789        4234413.91420981       0.178646394176939     
   611878.637927567        4234378.15649179       0.177785240278140     
   609318.322317388        4239482.29627024       0.329138918178707     
   609342.563968192        4239512.43872939       0.329250544647628     
   609362.670739165        4239543.75829296       0.329350891825985     
   609373.030990260        4239575.71312409       0.329452214817234     
   609376.729944385        4239611.12224021       0.329548261983916     
   609376.041042271        4239654.25356650       0.329697357203573     
   609358.102382286        4239711.87386113       0.330189448738341     
   609314.915684032        4239770.68729663       0.330786758907507     
   610578.779804746        4240998.72570980       0.420049658954238     
   610522.973165817        4240930.60520767       0.420052017022272     
   610552.863620001        4240935.68241580       0.420051876899586     
   610612.463974208        4240945.78833067       0.414315011399482     
   616824.090738903        4236724.48859861       0.174947382069640     
   616863.244804616        4233413.93893301       0.175400000000000     
   616828.175380104        4233412.47219793       0.175400000000000     
   616798.528648430        4233423.79714669       0.175400000000000     
   616769.063862488        4233435.72214483       0.175400000000000     
   616860.183012070        4233379.01045521       0.175400000000000     
   616861.410349481        4233348.11642295       0.175400000000000     
   616860.280451067        4233316.95207325       0.175400000000000     
   616980.948900011        4236225.48104091       0.181265577490761     
   616949.060627462        4236325.03706717       0.170100000000000     
   616917.604788548        4236424.89829002       0.170100000000000     
   616886.908370983        4236524.98582764       0.170100000000000     
   616857.793353612        4236624.51928703       0.170100000000000     
   617447.983245738        4229035.32080198       0.136200000000000     
   617381.083913868        4229124.88369916       0.136234196736013     
   617471.556316349        4229153.83598888       0.136200000000000     
   617502.436440740        4229282.73478713       0.136250868313814     
   617530.788457862        4229424.71561591       0.136351600516844     
   617551.822619697        4229590.83848700       0.136443912000319     
   617545.311838829        4229781.33342003       0.136661912846991     
   611745.668943350        4234515.18406292       0.180698042396668     
   611799.955962885        4234540.68435683       0.179947786826506     
   611853.607731127        4234550.71366646       0.179064072430965     
   611792.848406421        4234480.31444301       0.179697956623531     
   611838.277182280        4234444.16903262       0.178749089898393     
   611882.746027480        4234407.74126437       0.177859829570126     
   611925.333387568        4234372.31336687       0.177152100109040     
   609349.628545896        4239492.74112176       0.329299775015540     
   609371.814445582        4239523.60085551       0.329398440729800     
   609385.053744019        4239554.48656064       0.329497578071475     
   609392.400176111        4239587.84038064       0.329549868902672     
   609395.385201547        4239623.05039786       0.329597901968927     
   609393.482962447        4239666.80331619       0.329702158163217     
   609373.465264460        4239728.09757451       0.329717579932051     
   610582.799200709        4240940.70094673       0.420052046679484     
   610538.170491197        4240860.40914862       0.420100000000000     
   610569.772604207        4240875.09006547       0.420100000000000     
   610623.213035042        4240899.76338802       0.420100000000000     
   616809.348154956        4236634.56804589       0.170100000000000     
   616844.185910640        4233395.80682134       0.175400000000000     
   616812.891825111        4233401.53058437       0.175400000000000     
   616783.959889494        4233414.89489012       0.175400000000000     
   616844.199399405        4233302.36856116       0.175400000000000     
   616845.676526024        4233364.59393260       0.175400000000000     
   616845.245808871        4233333.16470928       0.175400000000000     
   616961.143675754        4236138.49899774       0.181281419829794     
   616928.647102962        4236237.35009012       0.170100000000000     
   616897.058596712        4236336.88364456       0.170100000000000     
   616866.068914755        4236436.76142076       0.170100000000000     
   616836.809803904        4236536.85556769       0.170100000000000     
   617421.169640314        4229138.80863446       0.136233351882195     
   617339.965289799        4229224.08303914       0.136300000000000     
   617439.097035918        4229262.26341993       0.136251462044277     
   617461.780885743        4229397.38319742       0.136350945803985     
   617475.406720584        4229547.83378666       0.136495895456490     
   617465.322995457        4229711.45823728       0.136686635214961     
   617427.611506840        4229885.46923315       0.136932151328128     
   611796.497485023        4234510.41132604       0.179795542064266     
   611850.960033311        4234532.74432137       0.179001233602565     
   611842.410040525        4234473.82163904       0.178848003922486     
   611887.339707493        4234437.04143803       0.177951215053417     
   611930.895817200        4234399.47367331       0.177149115066616     
   611970.686669620        4234364.25195250       0.176554873270712     
   609380.043262762        4239503.44933679       0.329461664989953     
   609395.290545872        4239534.74856473       0.329554809961321     
   609405.546620871        4239566.81787396       0.329601904909032     
   609410.856816133        4239600.09552144       0.329601115519055     
   609413.954297578        4239635.06163712       0.329600000000000     
   609412.431805625        4239680.13369063       0.329591677091471     
   610597.251426028        4240887.70365860       0.420100000000000     
   610580.344928464        4240801.50001692       0.420100000000000     
   610605.095238561        4240822.79596992       0.420100000000000     
   610650.558173848        4240861.95613362       0.420100000000000     
   616786.944641074        4236548.79263591       0.171907355625853     
   616829.329501462        4233381.48363059       0.175400000000000     
   616797.031125424        4233389.72310691       0.175400000000000     
   616830.733649911        4233287.37326923       0.175400000000000     
   616828.867378489        4233318.53830215       0.175400000000000     
   616830.210640999        4233350.12395866       0.175400000000000     
   616941.101571298        4236052.07540640       0.180293028650947     
   616909.578968879        4236150.29177315       0.170100000000000     
   616878.105490113        4236248.74416297       0.170100000000000     
   616846.747974963        4236348.01727883       0.170100000000000     
   616815.948066945        4236448.03395814       0.170100000000000     
   617381.583150223        4229240.95421634       0.136250666723631     
   617298.854225245        4229327.68126359       0.136350986810267     
   617396.874259161        4229369.34805795       0.136350334426974     
   617407.759572952        4229511.07614022       0.136495434994896     
   617399.751717215        4229661.47697122       0.136694774277415     
   617367.699577018        4229817.28366554       0.136998123109420     
   617299.031041657        4229950.23519654       0.137280344079650     
   611955.911500752        4234539.52505671       0.177295879144460     
